VERSION 0.7
FIELDS x y z rgb
SIZE 4 4 4 4
TYPE F F F F
COUNT 1 1 1 1
WIDTH 644
HEIGHT 1
VIEWPOINT 0 0 0 1 0 0 0
POINTS 644
DATA ascii
0.4830385311155303 -3.800886168618951 -0.18664565803420874 2.3509886e-038
0.6802833839383948 -4.205607900156321 0.9909334732390338 2.3509886e-038
0.22352646799079856 -2.3613538645469627 -0.7103656612588263 2.3509886e-038
0.4910708502964163 -3.7839027893235473 -0.05278932533096084 2.3509886e-038
0.27444881538404964 -2.7704016225851897 -0.729683511350655 2.3509886e-038
0.5162119242746648 -3.860795143777916 0.08126523595403834 2.3509886e-038
0.34353881915827855 -3.3284012944745864 -0.7540732802354984 2.3509886e-038
0.5328846178694859 -3.871460166096134 0.2173263107490282 2.3509886e-038
0.39079630810693167 -3.636175998705164 -0.6919452823691707 2.3509886e-038
0.5614586002865662 -3.960061106165662 0.361855096156829 2.3509886e-038
0.40330871128375023 -3.616959789724006 -0.5586316090092509 2.3509886e-038
0.5759309318850705 -3.9508887332798177 0.5013588256389394 2.3509886e-038
0.4186072708733446 -3.624523416299018 -0.4311334985427684 2.3509886e-038
0.6062638534648286 -4.042182702313951 0.6578793068790372 2.3509886e-038
0.44057645696914727 -3.682944317155542 -0.30837708111774653 2.3509886e-038
0.6245468170465867 -4.053538474354809 0.8069515173119328 2.3509886e-038
0.46104277456481446 -3.7312429443140784 -0.1815596080250894 2.3509886e-038
0.653589380173184 -4.130556799052264 0.9745541811299376 2.3509886e-038
0.21571822116977535 -2.362367494801302 -0.7094096020650755 2.3509886e-038
0.47169766995254503 -3.736001539429219 -0.050513360296860335 2.3509886e-038
0.2648126214146066 -2.7716496346668302 -0.7285035889505405 2.3509886e-038
0.49122442092021146 -3.7732977241463286 0.08098749280083778 2.3509886e-038
0.3325453907389959 -3.3298220263622187 -0.7527271211007851 2.3509886e-038
0.515636811279629 -3.8394580170266233 0.2169836603677151 2.3509886e-038
0.5376651326300457 -3.888823921697149 0.35683424711714595 2.3509886e-038
0.38523074489001985 -3.567471189475051 -0.5492258478852696 2.3509886e-038
0.5513727699350999 -3.87602610622783 0.4932809620842904 2.3509886e-038
0.4022301090354785 -3.5865792146830593 -0.4249921028893193 2.3509886e-038
0.582280248955318 -3.9755979787309466 0.6484375508987208 2.3509886e-038
0.42274464157853164 -3.641023310369668 -0.3031855896934081 2.3509886e-038
0.603831373844435 -4.010700541243314 0.799766467037335 2.3509886e-038
0.4447724536576312 -3.705126614742147 -0.1786363450078151 2.3509886e-038
0.6298044122636091 -4.070784207223616 0.9617488654389268 2.3509886e-038
0.20749664520199973 -2.363405741030682 -0.7084024827190207 2.3509886e-038
0.45412254385990525 -3.699920671308799 -0.04843376595633318 2.3509886e-038
0.25446162755593493 -2.765156260170427 -0.7253007404421059 2.3509886e-038
0.4726299201209485 -3.7312999324476417 0.08163343912574877 2.3509886e-038
0.3247132720576167 -3.3701266130382295 -0.7600707969064533 2.3509886e-038
0.49147101795297377 -3.75796894783471 0.21387900647432034 2.3509886e-038
0.5090532412512216 -3.7779972064008334 0.34811521545259294 2.3509886e-038
0.3699656246095868 -3.541490646077876 -0.543483256582269 2.3509886e-038
0.5376980721366975 -3.875734532924577 0.4946721782586978 2.3509886e-038
0.38420392074601606 -3.5367900902781106 -0.4174074166938011 2.3509886e-038
0.5551331569907596 -3.8834972884565957 0.6347860228545135 2.3509886e-038
0.40386960084904777 -3.5871351685565482 -0.29704537864809405 2.3509886e-038
0.5822728572583862 -3.9600113697014465 0.7909947080100059 2.3509886e-038
0.42499139824830445 -3.647191691640047 -0.17421891081041443 2.3509886e-038
0.6070187897916353 -4.014760213468208 0.9498044940331125 2.3509886e-038
0.20055931031976593 -2.37969446370394 -0.7119657466412361 2.3509886e-038
0.43775028635569146 -3.6717053689957737 -0.04648537815966014 2.3509886e-038
0.24552647494901647 -2.774044257491739 -0.7261404562829243 2.3509886e-038
0.4543323336237646 -3.689219904049004 0.08224372447916006 2.3509886e-038
0.31732783034262213 -3.4181967367310517 -0.7691290352401408 2.3509886e-038
0.473421273523843 -3.7199402592813353 0.2132027615167601 2.3509886e-038
0.49183870456640655 -3.747992332928865 0.34679357653394494 2.3509886e-038
0.34813438219250115 -3.448557824594446 -0.5275311085594957 2.3509886e-038
0.5155253003392994 -3.8124752527741688 0.48800904407153056 2.3509886e-038
0.3694379626099217 -3.5145720839206662 -0.4131162973909033 2.3509886e-038
0.5340811244571602 -3.8303751215956514 0.6274625266569709 2.3509886e-038
0.38926462070275414 -3.5688243171357454 -0.29388823700346933 2.3509886e-038
0.5582849119597275 -3.889808723558758 0.77829404989634 2.3509886e-038
0.4033724872689459 -3.5693104401127234 -0.16891105655085203 2.3509886e-038
0.5874709004019174 -3.977902042218467 0.942376116140494 2.3509886e-038
0.1919690177948845 -2.3768599950954523 -0.7098091815138778 2.3509886e-038
0.41882247465886935 -3.619581043096467 -0.04426958752615704 2.3509886e-038
0.23653238548725497 -2.782905017494191 -0.7269724737700418 2.3509886e-038
0.4353815688307838 -3.6391165341624174 0.08263799077663103 2.3509886e-038
0.30110456073472214 -3.371004799803962 -0.7567614813323786 2.3509886e-038
0.45711351772015574 -3.693722548479786 0.21318027785790705 2.3509886e-038
0.32194555736284947 -3.4467032104721733 -0.6489002078119197 2.3509886e-038
0.4748356299074923 -3.717915219367661 0.3454466815570033 2.3509886e-038
0.3361601391170479 -3.449969747487426 -0.526062741149064 2.3509886e-038
0.49146224065664135 -3.731413011967649 0.4790199367991175 2.3509886e-038
0.35402655934646643 -3.4843860600145105 -0.40791838778333545 2.3509886e-038
0.5088803011074445 -3.743908201510871 0.6146350307916031 2.3509886e-038
0.37018986648210017 -3.506840930420958 -0.28717540406964437 2.3509886e-038
0.5323378682139577 -3.8020160054669305 0.7620299128082801 2.3509886e-038
0.3849103640803606 -3.5151518584607984 -0.16478680826980652 2.3509886e-038
0.5629063679586523 -3.9043485217633256 0.9262301857445805 2.3509886e-038
0.18281025464306722 -2.366347718641296 -0.7053757443418771 2.3509886e-038
0.3989232532730036 -3.5554444973710746 -0.04195732909619936 2.3509886e-038
0.22811097983026907 -2.7994552899974616 -0.7298089237335863 2.3509886e-038
0.41770417401933724 -3.596872291913062 0.08317365400838905 2.3509886e-038
0.28805001310645395 -3.3567947578027697 -0.7518390686656433 2.3509886e-038
0.4357484744548754 -3.6238249618553726 0.21060099296376922 2.3509886e-038
0.30169839176456303 -3.3560501159899383 -0.6301517906327605 2.3509886e-038
0.45583867564912994 -3.6699809506264494 0.3424145763546399 2.3509886e-038
0.3197428897022123 -3.4040881477590452 -0.5174110402249756 2.3509886e-038
0.4704896042410125 -3.6699166040745976 0.4724954207995342 2.3509886e-038
0.33378875637561833 -3.40272498259075 -0.3967523724464077 2.3509886e-038
0.49542632741419435 -3.74146943267686 0.6155781757488878 2.3509886e-038
0.35519160077252754 -3.4804614344050866 -0.283421977023036 2.3509886e-038
0.5146967010328984 -3.770467813503194 0.7570073546151335 2.3509886e-038
0.3733567085343793 -3.522494510465662 -0.16356847210971995 2.3509886e-038
0.5366839768060214 -3.815265519516882 0.9063583376874105 2.3509886e-038
0.17542031553492743 -2.378743757251543 -0.7077788116248351 2.3509886e-038
0.38228297785311627 -3.5170591118486083 -0.03999345925281139 2.3509886e-038
0.21897511747234655 -2.808263086987 -0.7306224133110981 2.3509886e-038
0.4030098544017098 -3.578392603609522 0.08423470151749662 2.3509886e-038
0.2770206683336748 -3.3658784820594208 -0.7521459357671727 2.3509886e-038
0.42367001300914797 -3.6291876956914964 0.212372275845516 2.3509886e-038
0.28563796590670165 -3.3064180874907008 -0.619183441901634 2.3509886e-038
0.43741540877751506 -3.6239405386044377 0.3395273082757946 2.3509886e-038
0.3061424193020055 -3.3857018394243417 -0.5129761849606578 2.3509886e-038
0.456328068363981 -3.6595092640348867 0.472527758533412 2.3509886e-038
0.3201080449964756 -3.384252213439962 -0.3930059016796372 2.3509886e-038
0.4779549974368593 -3.707660818403415 0.611355037199425 2.3509886e-038
0.3376475839513692 -3.426242528883729 -0.27744228501068213 2.3509886e-038
0.4959876228845006 -3.729127340585522 0.7500028083098362 2.3509886e-038
0.3564595737815264 -3.47812407671415 -0.1599669749271413 2.3509886e-038
0.5192859821903775 -3.785852320921477 0.9006336007685702 2.3509886e-038
0.16821720702270704 -2.3949451857292208 -0.7113075811949559 2.3509886e-038
0.36821329280259296 -3.5004790943376 -0.03830135068590848 2.3509886e-038
0.20777030436175825 -2.7900113350511604 -0.7244100219877407 2.3509886e-038
0.38432909359190925 -3.5220885382778397 0.08437521724517927 2.3509886e-038
0.2674679645010747 -3.3943899022536703 -0.75678452369569 2.3509886e-038
0.4084126509892989 -3.6067349043486203 0.21251195385501742 2.3509886e-038
0.27317532332784245 -3.295896951334914 -0.6155769258103121 2.3509886e-038
0.41931756711124657 -3.5778205002523324 0.33660077520547005 2.3509886e-038
0.2892477163190872 -3.32785350747867 -0.5026052131067892 2.3509886e-038
0.4408114958594884 -3.6372327881625117 0.47102119946528975 2.3509886e-038
0.3029556855093525 -3.3261496776803874 -0.3846980562415787 2.3509886e-038
0.45777716827453463 -3.6502810757943056 0.6032196115685133 2.3509886e-038
0.32161279588447755 -3.383847878505889 -0.2724670760619483 2.3509886e-038
0.4775672978909673 -3.6877094866929787 0.7429635263006535 2.3509886e-038
0.343222175232868 -3.4674772202953315 -0.1579429636094153 2.3509886e-038
0.5000295552235681 -3.7409362961423502 0.8912074952704063 2.3509886e-038
0.16013723951075265 -2.3996467272851287 -0.7114183881460039 2.3509886e-038
0.35203779992491124 -3.461957136074144 -0.036393205349467786 2.3509886e-038
0.19916340223950435 -2.8064779695776556 -0.7272220857100167 2.3509886e-038
0.36835160270894374 -3.487571785956032 0.08500120658153343 2.3509886e-038
0.2564007050436462 -3.405357188554371 -0.7575005159384194 2.3509886e-038
0.38808868733203683 -3.5365894886593967 0.20980691755657088 2.3509886e-038
0.25799258612856524 -3.2500432132985386 -0.6054072097936081 2.3509886e-038
0.4089651744948748 -3.596912187351506 0.33980341144872916 2.3509886e-038
0.275389833824517 -3.3014572619505724 -0.497031276614597 2.3509886e-038
0.4208200401397284 -3.575495077914429 0.4643782555895861 2.3509886e-038
0.28898804149994206 -3.2996327784804618 -0.38008817270291795 2.3509886e-038
0.4403870780553827 -3.6124041123752986 0.5982803552250242 2.3509886e-038
0.30733070990372235 -3.3572635689772854 -0.2687996169632132 2.3509886e-038
0.4574801111282951 -3.6306499971060586 0.7327472410029476 2.3509886e-038
0.3243642132336231 -3.397111077085885 -0.15323620511896 2.3509886e-038
0.4810881157627167 -3.69594144593884 0.8817432912613647 2.3509886e-038
0.15227208458617636 -2.4081502203480225 -0.7126583866497027 2.3509886e-038
0.33496282444007275 -3.411422352119378 -0.03439753479028679 2.3509886e-038
0.19018366324041291 -2.8190574481661606 -0.7290205093265274 2.3509886e-038
0.35119910219001904 -3.4390632955524034 0.08525238322989326 2.3509886e-038
0.24372663832399577 -3.394863991679579 -0.7534524244445195 2.3509886e-038
0.37416225915331136 -3.5219390565563677 0.21036240997439593 2.3509886e-038
0.2446174001443755 -3.2237250433530757 -0.5989190889036173 2.3509886e-038
0.3860531950798065 -3.503159414497484 0.33232056918071584 2.3509886e-038
0.2576244490604255 -3.2237372818409487 -0.4837867108086038 2.3509886e-038
0.40755798259101916 -3.5688483338833015 0.4648708480501087 2.3509886e-038
0.27687043514094656 -3.2928573269289796 -0.3777720654668517 2.3509886e-038
0.42790458490100214 -3.613649786287911 0.5998145620767665 2.3509886e-038
0.2935887013982412 -3.3345906415881985 -0.265471119010269 2.3509886e-038
0.4418418412874654 -3.6065940125150022 0.7291727993490582 2.3509886e-038
0.30965891792539424 -3.366445884718671 -0.1503666922133881 2.3509886e-038
0.4634420288740284 -3.658592025547998 0.8740859693244634 2.3509886e-038
0.14274717173794726 -2.3898208616113705 -0.7059712143439931 2.3509886e-038
0.31616683884011343 -3.338909477838977 -0.032233153660081094 2.3509886e-038
0.18161583103810774 -2.83934150711277 -0.7328035893536771 2.3509886e-038
0.33497239717591987 -3.3964482368490656 0.08561324119704733 2.3509886e-038
0.23245735089351716 -3.4038060220476707 -0.7537272269492656 2.3509886e-038
0.3546267898397618 -3.4516277937567135 0.2075618451341018 2.3509886e-038
0.23086290985277969 -3.1895026821907866 -0.5909997468592687 2.3509886e-038
0.3692903041053224 -3.460774949442171 0.329661114848247 2.3509886e-038
0.24582736703765828 -3.2169289011445583 -0.48123008029381054 2.3509886e-038
0.38692806760525467 -3.495128083881028 0.45660170484826357 2.3509886e-038
0.2603362299184223 -3.230575322492148 -0.3691248587209526 2.3509886e-038
0.27933471297509793 -3.303914136490205 -0.26153257400755714 2.3509886e-038
0.4263741471487781 -3.5824771999015255 0.7255780730762402 2.3509886e-038
0.2927079092629007 -3.307854088668904 -0.1462912849209026 2.3509886e-038
0.44415331264162816 -3.6057220788549555 0.8627006350768085 2.3509886e-038
0.13486091581276693 -2.3982675022780957 -0.7072077033073718 2.3509886e-038
0.30151336195063916 -3.3061397500726892 -0.030498272351139978 2.3509886e-038
0.17127229784415987 -2.832534949298485 -0.7295967433323785 2.3509886e-038
0.32131709381170337 -3.377647163789578 0.08654995197217863 2.3509886e-038
0.2212562692227018 -3.4146604841027983 -0.7544248708858055 2.3509886e-038
0.3391345691027259 -3.4169864462272748 0.20686602213345662 2.3509886e-038
0.21775401358426272 -3.161104430646232 -0.5841971935243921 2.3509886e-038
0.3528217122218986 -3.4183206667598265 0.3269661470917353 2.3509886e-038
0.23235797206067677 -3.1863999112486634 -0.47514898740885037 2.3509886e-038
0.3714615542931645 -3.4646987727402765 0.4539542631825144 2.3509886e-038
0.24744441031401143 -3.2098215217371666 -0.36526545242490793 2.3509886e-038
0.38982012531983923 -3.498351259407525 0.583269414427696 2.3509886e-038
0.262078983604507 -3.2334292478171482 -0.2544920876882995 2.3509886e-038
0.40905394713836873 -3.5407717563909253 0.7184063387257329 2.3509886e-038
0.27954833494521103 -3.289001708442323 -0.14400875840737543 2.3509886e-038
0.43078507284311973 -3.5991388228170615 0.8623798917784526 2.3509886e-038
0.12772820953770836 -2.422018450937051 -0.7129493024263573 2.3509886e-038
0.28743727841016986 -3.2772933119519414 -0.028825858453184243 2.3509886e-038
0.16031837337048305 -2.8140846481933726 -0.7234124925116519 2.3509886e-038
0.3061555414852285 -3.34087355153734 0.08700396969722018 2.3509886e-038
0.2099854084664199 -3.4254792151148186 -0.7551132149413489 2.3509886e-038
0.3215991737867836 -3.358433829480283 0.204687880544472 2.3509886e-038
0.20625814302105627 -3.154240159421353 -0.5813985107790587 2.3509886e-038
0.33823284830522793 -3.391645531579332 0.3257572502090126 2.3509886e-038
0.2182792119906859 -3.143970624344139 -0.46733323820772776 2.3509886e-038
0.35620965119101156 -3.4342082158079466 0.45128112296078005 2.3509886e-038
0.23236652688718085 -3.157302910798507 -0.3578295917616614 2.3509886e-038
0.37392261090123124 -3.4641205982577654 0.5788568974029265 2.3509886e-038
0.2496301922112505 -3.2185232454252484 -0.251867192023532 2.3509886e-038
0.3907144532138298 -3.487307180173948 0.7088235838176675 2.3509886e-038
0.26360317041382186 -3.234248895166703 -0.14018853985353996 2.3509886e-038
0.4149962047075142 -3.571249962992538 0.8569528625300891 2.3509886e-038
0.11929927441304244 -2.422753481037518 -0.7119116641978172 2.3509886e-038
0.2739003589355099 -3.2523738547108674 -0.02721120382262343 2.3509886e-038
0.1515678630323095 -2.8342810243102363 -0.7271714742188979 2.3509886e-038
0.29094477197893664 -3.2940295251695884 0.08709308975634256 2.3509886e-038
0.19830336437307783 -3.430411464808593 -0.7545051278625858 2.3509886e-038
0.3081414389958249 -3.3395607834723844 0.20489928824062298 2.3509886e-038
0.1911705846468822 -3.088430020614855 -0.5677773231590246 2.3509886e-038
0.3215421487714083 -3.341131869844414 0.32223255393342654 2.3509886e-038
0.20658136064386334 -3.133063870327881 -0.4642340146901254 2.3509886e-038
0.34057335694939606 -3.3917682815815557 0.4469495869736281 2.3509886e-038
0.2198820053732573 -3.136433989152664 -0.35401905876932527 2.3509886e-038
0.3590836061977678 -3.437675086262996 0.5757301747800843 2.3509886e-038
0.3714806042671719 -3.4220748702445585 0.6968143921928294 2.3509886e-038
0.2504597094887486 -3.2032824600936736 -0.13750872738729067 2.3509886e-038
0.395430569193421 -3.5026557833543532 0.8416727658892713 2.3509886e-038
0.11051815169192347 -2.415789636113066 -0.7086238651563252 2.3509886e-038
0.2623903284659661 -3.2433012966412504 -0.025813602332814947 2.3509886e-038
0.14239708708895016 -2.83893263169347 -0.7270092613972534 2.3509886e-038
0.27514384309860695 -3.243184352965083 0.08710685551771058 2.3509886e-038
0.1862744940855925 -3.4294518869974624 -0.7526085364233854 2.3509886e-038
0.29305421204155013 -3.30075133379335 0.20386649159643672 2.3509886e-038
0.17913648290169826 -3.057851693969939 -0.5607593195160392 2.3509886e-038
0.30909075721447155 -3.326181644474422 0.32204931470705056 2.3509886e-038
0.19043459418426945 -3.0411035024411786 -0.4492500941820444 2.3509886e-038
0.32272735423590626 -3.329577003037607 0.4400466689085206 2.3509886e-038
0.20939537606246184 -3.14327854116803 -0.35334728501071844 2.3509886e-038
0.3422427143236928 -3.383647427827377 0.5678965721052598 2.3509886e-038
0.22265105091429926 -3.1467499124851943 -0.24349101797959072 2.3509886e-038
0.3573834534840903 -3.395702780092682 0.6926307090532506 2.3509886e-038
0.3782644069687633 -3.457235790966627 0.8319943379528119 2.3509886e-038
0.10253258553248756 -2.4164300430816925 -0.7076399380972109 2.3509886e-038
0.24590631739749025 -3.1764058759189533 -0.02391871253861024 2.3509886e-038
0.132703814969082 -2.8435932733739175 -0.7267820994147978 2.3509886e-038
0.26496220094052325 -3.250014101201361 0.08858442694323121 2.3509886e-038
0.1749511883034338 -3.430354083111901 -0.7512132644253093 2.3509886e-038
0.27829158256357533 -3.2558685786076462 0.20236061930317129 2.3509886e-038
0.16634851255870697 -3.019405571924527 -0.5522640121992892 2.3509886e-038
0.29297587587826435 -3.275540994256572 0.318454925603071 2.3509886e-038
0.17987668012265734 -3.0419380952821204 -0.4479490318610495 2.3509886e-038
0.308834942544188 -3.2988537959946593 0.4372080022730217 2.3509886e-038
0.19287953149666748 -3.04689567220081 -0.34118603957493 2.3509886e-038
0.32633482409448056 -3.3413765306534633 0.5620718341755244 2.3509886e-038
0.3424823535662027 -3.3654240282001946 0.6877008816310757 2.3509886e-038
0.22410906206118286 -3.1392407070696984 -0.13207323690365805 2.3509886e-038
0.3642628190941697 -3.432977701695493 0.8273318377448344 2.3509886e-038
0.09412340049973711 -2.417075492529075 -0.7066033661174582 2.3509886e-038
0.2336778402265154 -3.153273660821364 -0.022459494857489347 2.3509886e-038
0.12347751256859618 -2.8481844142594066 -0.7266119762633692 2.3509886e-038
0.25028738317547616 -3.2070238105035815 0.08875796831479094 2.3509886e-038
0.2663725623723776 -3.2487679780375354 0.20325165626906488 2.3509886e-038
0.15353579970021825 -2.9651430003695824 -0.5409972934076961 2.3509886e-038
0.28033314436054735 -3.254540423685734 0.31765257680366865 2.3509886e-038
0.16785891292486055 -3.0071324778097854 -0.4414908646299338 2.3509886e-038
0.29280414922081666 -3.2483728611221974 0.43178917545986195 2.3509886e-038
0.1804084824852833 -3.015945755732841 -0.3363422153629372 2.3509886e-038
0.3109200333238554 -3.2950733675543136 0.5554792181621284 2.3509886e-038
0.19704074909460645 -3.080720647506976 -0.23569095780302535 2.3509886e-038
0.32990712465964656 -3.350648098255139 0.6858681344378286 2.3509886e-038
0.34884257983815825 -3.399039585885076 0.8203878709886829 2.3509886e-038
0.08667954533308309 -2.433011207482937 -0.7100979840373722 2.3509886e-038
0.2233166510454866 -3.1620534873836728 -0.021165653053876708 2.3509886e-038
0.11365019102933682 -2.8508444354452602 -0.725883685825242 2.3509886e-038
0.23546608450423623 -3.1579912973871327 0.08872714728517211 2.3509886e-038
0.25162015370841684 -3.1978052407408013 0.20131193913068557 2.3509886e-038
0.14228708799611678 -2.946235412357391 -0.5361503259278209 2.3509886e-038
0.2676001333778646 -3.237501182224536 0.31729124220907745 2.3509886e-038
0.15617662637027718 -2.9841704972828462 -0.43673235590097637 2.3509886e-038
0.2815759243214776 -3.249181151453086 0.4331740727994715 2.3509886e-038
0.16893621071673182 -2.9988348950689483 -0.33306741496661807 2.3509886e-038
0.29525093259681534 -3.2487504992339313 0.5489184994549454 2.3509886e-038
0.18310541502541078 -3.0277392770362637 -0.23028509818438236 2.3509886e-038
0.3125941112587012 -3.2909997827660913 0.6748934400808451 2.3509886e-038
0.33250688721157773 -3.353432343035553 0.8106089327442667 2.3509886e-038
0.07803606382162309 -2.4413085353996125 -0.711237969479793 2.3509886e-038
0.20861153454927994 -3.106943848583902 -0.01946420801586661 2.3509886e-038
0.10387617745970823 -2.85540780239272 -0.7256449634501625 2.3509886e-038
0.2236819853250388 -3.1467842548976113 0.08973495287347866 2.3509886e-038
0.23880657509114922 -3.1826841972516395 0.20173623916082412 2.3509886e-038
0.13083804869623616 -2.931247885657464 -0.5319699347339696 2.3509886e-038
0.2504331376987622 -3.162870371148953 0.3112527321764945 2.3509886e-038
0.14465806978985318 -2.961160596336344 -0.4319934502891998 2.3509886e-038
0.2696860201061526 -3.2420470705861377 0.43350339992686104 2.3509886e-038
0.15716730109262655 -2.973738532687691 -0.32892893484933994 2.3509886e-038
0.2839805965620714 -3.25544786157839 0.5513709344552127 2.3509886e-038
0.17106256716180424 -3.0105688991027284 -0.22757005806960934 2.3509886e-038
0.2969189414313619 -3.2508325231873227 0.6679464883448043 2.3509886e-038
0.1850149819113105 -3.03585182813303 -0.12373679464851922 2.3509886e-038
0.3172314209307485 -3.3155045151697515 0.8026655520885151 2.3509886e-038
0.06954063767516727 -2.4418704643346025 -0.7101893663256125 2.3509886e-038
0.19414259843803683 -3.0577916941753807 -0.0177791857570513 2.3509886e-038
0.09332356450768486 -2.8522195894865363 -0.7233752161579168 2.3509886e-038
0.20833738705520077 -3.0816786911461955 0.08917504476350846 2.3509886e-038
0.2263690218792337 -3.163496489980045 0.20182553478941845 2.3509886e-038
0.11968548649978639 -2.9083158982902293 -0.5264417738903251 2.3509886e-038
0.24014549547669828 -3.1794968887273467 0.3142400085087521 2.3509886e-038
0.13279045095613518 -2.9381357619703325 -0.42721092871642796 2.3509886e-038
0.2521778746732951 -3.1637309059193894 0.42428643913443 2.3509886e-038
0.1455750191032983 -2.9485937171190297 -0.3248116848398893 2.3509886e-038
0.2775061769927154 -3.313162145281634 0.5624337011390499 2.3509886e-038
0.15934642291160972 -2.987342551030309 -0.22448509895985036 2.3509886e-038
0.28466606916791626 -3.2398428127347674 0.6669216353137706 2.3509886e-038
0.17288800375880653 -3.0085960290748757 -0.1213115046038753 2.3509886e-038
0.3011478306594575 -3.265902846605318 0.7918739150526182 2.3509886e-038
0.060661783671303815 -2.4270413999409572 -0.7046803111600739 2.3509886e-038
0.18167693399731355 -3.018493599564977 -0.01632069997008264 2.3509886e-038
0.08418504469840582 -2.8624973690117304 -0.724664635210547 2.3509886e-038
0.19587559742727123 -3.0544123031956874 0.08967278071133239 2.3509886e-038
0.21176066171634234 -3.110408931409463 0.1997252237057704 2.3509886e-038
0.10919419535808317 -2.8853074381185695 -0.5209947261412518 2.3509886e-038
0.22511125555093492 -3.116617412121241 0.3092273626283851 2.3509886e-038
0.12111395124393032 -2.891268624059352 -0.41913391518104104 2.3509886e-038
0.2424480563446939 -3.1802142349101743 0.4277638887075613 2.3509886e-038
0.13370269985919392 -2.913472220043037 -0.3196262043210871 2.3509886e-038
0.25714435038151706 -3.1958969683286145 0.5437133649679979 2.3509886e-038
0.14831056796941133 -2.964038408828705 -0.22148359941159357 2.3509886e-038
0.2707364356044075 -3.2014468749015847 0.6601833349785093 2.3509886e-038
0.1622438638260334 -3.005237807998015 -0.1198642109556168 2.3509886e-038
0.28901776261448564 -3.256903195743963 0.7909149516668061 2.3509886e-038
0.05288851784004833 -2.4390396252969415 -0.7070294890040363 2.3509886e-038
0.16861511726839495 -2.973186087776759 -0.014800186453135952 2.3509886e-038
0.07317454528284406 -2.8223764164634573 -0.7131489529660657 2.3509886e-038
0.1843718019212035 -3.031058311184019 0.09020148448019444 2.3509886e-038
0.19869766873242856 -3.067190057495119 0.19815764350962323 2.3509886e-038
0.09700780385107555 -2.8229418664193524 -0.5084187665214431 2.3509886e-038
0.21078357369385092 -3.065621801832148 0.3054160251520106 2.3509886e-038
0.10986008784648338 -2.860203160373303 -0.4133202302900896 2.3509886e-038
0.22710302773283297 -3.113605077678214 0.4199877406860535 2.3509886e-038
0.12291396674570865 -2.8862174535204703 -0.31540050110650397 2.3509886e-038
0.245044578624389 -3.1827725921613808 0.5427309777019689 2.3509886e-038
0.1370104761105333 -2.942714074871226 -0.2185854746461547 2.3509886e-038
0.2577816664877053 -3.1786505051084437 0.6567086968357232 2.3509886e-038
0.14991986662371937 -2.957903152199858 -0.11675065142454977 2.3509886e-038
0.2737095991519466 -3.203285180160858 0.7790458238914839 2.3509886e-038
0.04475090038894147 -2.4587211554825608 -0.7115394058453068 2.3509886e-038
0.15786985523566888 -2.955756388276197 -0.013508638755690007 2.3509886e-038
0.17113231932467743 -2.9837402496720205 0.09005265495636114 2.3509886e-038
0.07564240667399436 -2.8240811129998904 -0.6090512668410428 2.3509886e-038
0.18551849001030163 -3.025940817522359 0.19674960065703417 2.3509886e-038
0.08726541530522347 -2.809680931148218 -0.5047929562299827 2.3509886e-038
0.198632054759169 -3.0343996547610557 0.30348316010289966 2.3509886e-038
0.10056520412888481 -2.8646749852663076 -0.4127241720853748 2.3509886e-038
0.21359259263624442 -3.074646277057969 0.4159681370740813 2.3509886e-038
0.11181375414392913 -2.8589467342141854 -0.31113578354212934 2.3509886e-038
0.22894833633053646 -3.106655560735994 0.5309172372578275 2.3509886e-038
0.12464302002926886 -2.8814640532240925 -0.21282432195171141 2.3509886e-038
0.24370958465204962 -3.1323444121501494 0.6482973438343482 2.3509886e-038
0.1389159690992282 -2.9424845162317568 -0.11486012463541478 2.3509886e-038
0.26059057682797393 -3.178696201397254 0.774278621373869 2.3509886e-038
0.036624295726750855 -2.459146179051791 -0.710534578793397 2.3509886e-038
0.14673512074934114 -2.9383136043119937 -0.012168410577452042 2.3509886e-038
0.05407265710780507 -2.8253435881513504 -0.7112710094858736 2.3509886e-038
0.15908029293717352 -2.9523373185514665 0.09035267571309069 2.3509886e-038
0.06564461796697652 -2.816769717973521 -0.606154916523195 2.3509886e-038
0.17429907826962754 -3.004537516610286 0.19654603193499504 2.3509886e-038
0.07804932087306038 -2.829862537518519 -0.5071126849534641 2.3509886e-038
0.18641317994889595 -3.0071311653799175 0.30198848529182765 2.3509886e-038
0.08899238074907934 -2.8137369496129274 -0.404105545743374 2.3509886e-038
0.20061618093030265 -3.039590943583691 0.41245208263780664 2.3509886e-038
0.10139773308466737 -2.845540942978597 -0.3084013837445777 2.3509886e-038
0.2127173804203183 -3.036429763014592 0.5201825261185564 2.3509886e-038
0.11280957705486372 -2.8481116737868746 -0.20903995969059824 2.3509886e-038
0.22766818178635173 -3.062575778454389 0.6350544630224562 2.3509886e-038
0.12688289122669927 -2.901068494231607 -0.11198026627243213 2.3509886e-038
0.2491646547186207 -3.173433629102348 0.774217461476624 2.3509886e-038
0.027640739996953823 -2.4595843638639003 -0.7094233007848796 2.3509886e-038
0.13530569185735353 -2.9228500509677935 -0.010787077196303375 2.3509886e-038
0.04423785198407748 -2.856875064432896 -0.7177917413424106 2.3509886e-038
0.14714476656636066 -2.9288967323632007 0.0909364577909447 2.3509886e-038
0.05475161827614372 -2.7859826067037163 -0.5981670973308344 2.3509886e-038
0.1609997569458228 -2.9612220276787613 0.19500936610140834 2.3509886e-038
0.06782327275736966 -2.8342933291859875 -0.5065394334235473 2.3509886e-038
0.17352344519534912 -2.9738807751021707 0.2999333481852041 2.3509886e-038
0.07906882122026415 -2.826098986823232 -0.4045364267850966 2.3509886e-038
0.18736351136303775 -3.004510392238244 0.4089707728133891 2.3509886e-038
0.0896967796234448 -2.804293695503822 -0.3026149856485916 2.3509886e-038
0.2022265491246319 -3.0448153588009124 0.5228963529508126 2.3509886e-038
0.10229511399900926 -2.844610510832591 -0.20746595311924898 2.3509886e-038
0.21463111945412694 -3.0357467034639867 0.6307459423825759 2.3509886e-038
0.11440462979815458 -2.853634162136134 -0.10884595469466332 2.3509886e-038
0.23128312487461966 -3.088708897382946 0.754804787830631 2.3509886e-038
0.01862535674908472 -2.456145739122134 -0.7072044423153712 2.3509886e-038
0.12305626402549175 -2.8853623274686684 -0.009348456424117697 2.3509886e-038
0.0342421738737172 -2.894198068665103 -0.7257427576855005 2.3509886e-038
0.13556640726486757 -2.909402613431767 0.09162545677224307 2.3509886e-038
0.045164861386952304 -2.7922792173911968 -0.5982256251412716 2.3509886e-038
0.14983704312377533 -2.9537271034582213 0.1958124304991059 2.3509886e-038
0.057645310303704345 -2.842624675330449 -0.5066634324854888 2.3509886e-038
0.16109315682548142 -2.944552925514925 0.2982513494348642 2.3509886e-038
0.06876810019901958 -2.826550653887316 -0.403261424912854 2.3509886e-038
0.17576290874144185 -2.9931170456603122 0.4086996986135375 2.3509886e-038
0.07973954867688704 -2.7967666778399805 -0.3005560797831579 2.3509886e-038
0.18824114991530116 -2.990189394341953 0.5147167140074682 2.3509886e-038
0.09178362173949217 -2.8250995570510202 -0.20479963748555696 2.3509886e-038
0.20284022962096016 -3.024498469957688 0.6296676681814579 2.3509886e-038
0.10379951103440366 -2.8480890259616887 -0.10733436336266625 2.3509886e-038
0.21829785728101692 -3.063993422501159 0.7500229037006867 2.3509886e-038
0.010048801734716228 -2.4488113184079845 -0.7039362858281255 2.3509886e-038
0.11118158849603665 -2.837811759359112 -0.007976022214404306 2.3509886e-038
0.024211249502937404 -2.898491744993204 -0.725467870162176 2.3509886e-038
0.124633059401 -2.8898434525500805 0.09223518871454445 2.3509886e-038
0.03570975584324243 -2.812232942937561 -0.6012049625561673 2.3509886e-038
0.13697801399875742 -2.898330046889929 0.1933546026457562 2.3509886e-038
0.047276251039264916 -2.813492396170663 -0.5001904423112743 2.3509886e-038
0.1492812628752267 -2.9131698809803224 0.2962786547547288 2.3509886e-038
0.058955163586128956 -2.8269453607748836 -0.4020462472972086 2.3509886e-038
0.16170079590039432 -2.9262610735188206 0.4007677147307681 2.3509886e-038
0.07073358527471385 -2.824987992176447 -0.3023331683203503 2.3509886e-038
0.17674171304529862 -2.97092634861724 0.5126011309720364 2.3509886e-038
0.0814078844254622 -2.8055488269235056 -0.20214959979118924 2.3509886e-038
0.19103146264652937 -3.0034163423310085 0.6264771858337601 2.3509886e-038
0.09274485851765846 -2.812521663202777 -0.1047726816559543 2.3509886e-038
0.2066735016599518 -3.048901624261135 0.7475306079104973 2.3509886e-038
0.0015401752488299891 -2.4683585636654355 -0.7083979407704581 2.3509886e-038
0.10063859102594575 -2.818195862044725 -0.006710856531767395 2.3509886e-038
0.014065695267490352 -2.8852886017794797 -0.7208260170113687 2.3509886e-038
0.11401399098584497 -2.8622369417625237 0.092508865606209 2.3509886e-038
0.025953805312651124 -2.8145542642269996 -0.6004113902681565 2.3509886e-038
0.1263387854850445 -2.8847480517665574 0.19366002181345215 2.3509886e-038
0.0376871081294492 -2.827638339817086 -0.5014240462206005 2.3509886e-038
0.13711695814026437 -2.869818455980357 0.2930619479667832 2.3509886e-038
0.04959823584192202 -2.825308340867386 -0.40061059383584086 2.3509886e-038
0.15085753020403103 -2.902867654392557 0.39869690382864875 2.3509886e-038
0.061103120789770204 -2.8332992588853703 -0.30196640530478036 2.3509886e-038
0.1649345488485977 -2.943751066871363 0.5091083464030977 2.3509886e-038
0.07157804940670853 -2.8019123057614035 -0.2006587134098266 2.3509886e-038
0.17870440442204905 -2.96273154365463 0.6191215719067009 2.3509886e-038
0.08372124472774567 -2.8208453454037326 -0.10391964687853042 2.3509886e-038
0.19492927632611612 -3.0221196125145546 0.742104650549984 2.3509886e-038
-0.006648640555641627 -2.480175952108677 -0.7106925298270534 2.3509886e-038
0.09233747759204047 -2.848498650549712 -0.005620853719479589 2.3509886e-038
0.004456033701466633 -2.8351594891210055 -0.7070620190552839 2.3509886e-038
0.10277617258028204 -2.8126183562824374 0.09204115340436603 2.3509886e-038
0.016475795609107058 -2.783572407863854 -0.5925966538073164 2.3509886e-038
0.11588785851190564 -2.86114252681918 0.19321937496464686 2.3509886e-038
0.12786482305559566 -2.874109167773008 0.2946380616499946 2.3509886e-038
0.04002623628222657 -2.807799285557351 -0.396936411898292 2.3509886e-038
0.14036316061644516 -2.883394647477329 0.3971523295096375 2.3509886e-038
0.051801522137326694 -2.8355969001480985 -0.3010201142031391 2.3509886e-038
0.15382017778573065 -2.9165176638568493 0.5055302403954534 2.3509886e-038
0.0628811741274069 -2.8261480883660712 -0.20121875317508287 2.3509886e-038
0.16664682287396315 -2.9220049869407156 0.6117330679304243 2.3509886e-038
0.07496023759999693 -2.841127521111474 -0.10349617034269212 2.3509886e-038
0.18336058494865015 -2.9952988937610576 0.7366575078433497 2.3509886e-038
-0.01473043772159488 -2.4612031796071157 -0.7041749697027517 2.3509886e-038
0.08296338045775897 -2.8487888923843148 -0.004458670621147166 2.3509886e-038
-0.004863024910563896 -2.808277194158447 -0.6991364894786831 2.3509886e-038
0.09297360088531137 -2.810919583637416 0.09318206696964393 2.3509886e-038
0.0072162927822172485 -2.7564649270919794 -0.5856385269418742 2.3509886e-038
0.1051466406542243 -2.8255367125856563 0.1919472460635786 2.3509886e-038
0.01888016906852097 -2.8065700766958916 -0.4952874708465381 2.3509886e-038
0.11801510602599785 -2.864454387832372 0.2947857327767035 2.3509886e-038
0.03053627338967191 -2.831855606319454 -0.3990768423478275 2.3509886e-038
0.12905411783799925 -2.854004014795198 0.39428669039933617 2.3509886e-038
0.041698075779695754 -2.8179902492824165 -0.29790798855406686 2.3509886e-038
0.14347118165060213 -2.9010556042437794 0.5039816352547015 2.3509886e-038
0.15561562054899114 -2.904708234400075 0.6092938981114286 2.3509886e-038
0.06502289314751264 -2.8374181611808207 -0.1021313881832851 2.3509886e-038
0.1703382328736056 -2.9490644437603506 0.7264759389188784 2.3509886e-038
-0.023796080705004274 -2.4691437671138163 -0.7052568104494064 2.3509886e-038
0.0729938587849438 -2.8450621355892207 -0.0032303237443091423 2.3509886e-038
-0.014495626778847415 -2.783312297850817 -0.6916552084403962 2.3509886e-038
0.08407003491088982 -2.8391564785874337 0.09532836715992943 2.3509886e-038
-0.0028141087508974927 -2.7293467883670783 -0.5785843491161988 2.3509886e-038
0.09642214832676099 -2.8716803957815027 0.1963567305124881 2.3509886e-038
0.008572870595798143 -2.783207445328925 -0.48985781985194055 2.3509886e-038
0.1070583882474595 -2.8368863477864483 0.2931386250860505 2.3509886e-038
0.020662024154410652 -2.826174489794335 -0.39702267356518484 2.3509886e-038
0.11679365184146284 -2.796862121754397 0.38755618600654795 2.3509886e-038
0.03180947841199211 -2.808301642940776 -0.29564834518947525 2.3509886e-038
0.13069325565511114 -2.8521212849471107 0.4967170791610753 2.3509886e-038
0.14332924827268445 -2.8697907882419553 0.6032038744278878 2.3509886e-038
0.05526789583484559 -2.841666693711889 -0.10105365444471023 2.3509886e-038
0.1573188783438877 -2.8969685529837217 0.7148200806209561 2.3509886e-038
-0.0324361693273838 -2.4731966399550425 -0.7052878266835823 2.3509886e-038
0.06255787695805759 -2.8413109805769983 -0.0019435425294825268 2.3509886e-038
-0.024571866159603384 -2.7738483275961876 -0.6879869200468471 2.3509886e-038
-0.012245303286989584 -2.717829489343823 -0.5749239512314759 2.3509886e-038
0.08648539339095918 -2.8719122452740113 0.1975898488044448 2.3509886e-038
-0.0010850058636758808 -2.759792627829552 -0.4845081245047289 2.3509886e-038
0.09906364187411976 -2.904721995426954 0.3014317312146644 2.3509886e-038
0.010296508504618829 -2.8085844797451327 -0.3932484734395031 2.3509886e-038
0.10860531932208695 -2.8485604247998384 0.3959703613569888 2.3509886e-038
0.02169071346589324 -2.760784962604865 -0.2894344320182707 2.3509886e-038
0.1239288805467379 -2.9251766407491684 0.5106543861477326 2.3509886e-038
0.033454896217741004 -2.824911549586575 -0.1974316839714752 2.3509886e-038
0.13360278526175784 -2.873919861124765 0.6052571096784165 2.3509886e-038
0.04495971191714854 -2.8438930581852357 -0.09984047702238932 2.3509886e-038
0.14574308860523089 -2.875866370851951 0.7108499580014331 2.3509886e-038
-0.04142403050008092 -2.4964530293841163 -0.7107909107153865 2.3509886e-038
0.05241889381873677 -2.8255138457974214 -7.176340768832029E-4 2.3509886e-038
-0.034694801966926536 -2.812868072222863 -0.6964018813985811 2.3509886e-038
0.06383027250905415 -2.8355997183389983 0.09769166723721154 2.3509886e-038
-0.021503164175528777 -2.694536512910721 -0.5687945128932412 2.3509886e-038
0.07654795333047903 -2.8721090757627685 0.19882359646348396 2.3509886e-038
-0.010517192959131005 -2.7205806994768396 -0.47641857681026867 2.3509886e-038
0.08792145507661897 -2.8691280567645276 0.2989498448339697 2.3509886e-038
5.481961837993099E-4 -2.81669555387934 -0.3931438215829922 2.3509886e-038
0.09876095326711043 -2.848748755863289 0.3971926571568565 2.3509886e-038
0.012078503154045572 -2.7530114022766012 -0.2874146215466252 2.3509886e-038
0.11382387017024809 -2.9253679475322936 0.5119090752973328 2.3509886e-038
0.12149417941528584 -2.8232698609831237 0.5957620345124119 2.3509886e-038
0.03483209590686809 -2.822089440768318 -0.09785427221654522 2.3509886e-038
0.13508703441139547 -2.8605325591127038 0.708240908399445 2.3509886e-038
-0.05003137406109581 -2.4927534830377858 -0.7086187224784561 2.3509886e-038
0.04245334539522638 -2.8136799934695755 4.954619576120825E-4 2.3509886e-038
-0.04561142629749415 -2.8848611421824577 -0.7129385877896299 2.3509886e-038
0.05415845814959985 -2.817768653422469 0.0982230408031062 2.3509886e-038
-0.0307328637679134 -2.682949134964163 -0.565158104078525 2.3509886e-038
0.06716791373657494 -2.89620658706618 0.20172474548416214 2.3509886e-038
-0.019995465032856763 -2.724673221567626 -0.4759331371296156 2.3509886e-038
0.07799922540520465 -2.8692862319573837 0.30018230001491975 2.3509886e-038
-0.009265842793914847 -2.8287352729687933 -0.3935833255462431 2.3509886e-038
0.09089934379244802 -2.8964100304889167 0.40499826072087053 2.3509886e-038
0.0024977087637464424 -2.721331775882128 -0.2829191484365219 2.3509886e-038
0.10371832836980466 -2.9255236945228607 0.5131643830868862 2.3509886e-038
0.013747935522894661 -2.801301832613257 -0.193346237753247 2.3509886e-038
0.11344928266086907 -2.8664326006461196 0.6060680462543608 2.3509886e-038
0.025214852228046425 -2.7862511119993427 -0.09546728296899759 2.3509886e-038
0.12477391590316289 -2.8393377773864374 0.704115193608208 2.3509886e-038
-0.05852283023373506 -2.485176524319568 -0.7053573889653528 2.3509886e-038
0.032698902620175274 -2.771806677444628 0.0016213397585095393 2.3509886e-038
-0.055733374757308884 -2.916050132997625 -0.7194182607531998 2.3509886e-038
0.04418558364755265 -2.8039070617894346 0.0989411812384896 2.3509886e-038
-0.039471042707420745 -2.643929432532181 -0.5557721258325201 2.3509886e-038
0.056674479544356005 -2.872398159874348 0.20129254158117837 2.3509886e-038
-0.028816796553410073 -2.7090259787399766 -0.47206959828206174 2.3509886e-038
0.06943081572450527 -2.905196978395099 0.3051124291857571 2.3509886e-038
0.0801143284321646 -2.86881469803624 0.4023548537797762 2.3509886e-038
-0.006887940671526316 -2.6995630207285646 -0.2794803627548933 2.3509886e-038
0.09411766926983278 -2.925638832267204 0.514357484532507 2.3509886e-038
0.004458725451281564 -2.763500121145716 -0.18959842692120982 2.3509886e-038
0.10305551076132202 -2.8391669523877834 0.6014372668499639 2.3509886e-038
0.015368826663456847 -2.7523826282613193 -0.09311760503296154 2.3509886e-038
0.11544934385230465 -2.8510859792402248 0.7082232817371503 2.3509886e-038
-0.06683887172663672 -2.489106272981609 -0.7054268228423193 2.3509886e-038
0.022931319523585625 -2.7519032433408355 0.0027944692565982365 2.3509886e-038
-0.06630994615180597 -2.935564660907855 -0.7229393783529279 2.3509886e-038
0.03482272020370725 -2.8319803184544563 0.1011471726866186 2.3509886e-038
-0.047841681997262575 -2.6244421121851915 -0.5505814570816463 2.3509886e-038
0.04690470735181418 -2.8525385759766833 0.20106026140959832 2.3509886e-038
-0.03750179896590411 -2.6578863030426443 -0.4619957642565814 2.3509886e-038
0.05897765324114812 -2.885402994255315 0.3042644844216744 2.3509886e-038
0.07087857761321326 -2.8966202257103904 0.4074867634440542 2.3509886e-038
-0.01559693417129071 -2.6678093612019267 -0.27509224302021873 2.3509886e-038
0.0840142357851823 -2.9257255125226065 0.5156136030259397 2.3509886e-038
-0.00510157047435178 -2.7516081584338856 -0.18759084746486504 2.3509886e-038
0.09441087472135867 -2.8744448005983365 0.6101267474735077 2.3509886e-038
0.005807196546633864 -2.7404658290205735 -0.09153134557175513 2.3509886e-038
0.10503702957399441 -2.8356464742835077 0.7055855386358618 2.3509886e-038
-0.07573213837975779 -2.496858024078635 -0.7065272434933028 2.3509886e-038
0.013285105728193747 -2.7279648241001166 0.003944826649798679 2.3509886e-038
-0.07651717634534316 -2.935628488320774 -0.721669986334996 2.3509886e-038
0.0249480389578014 -2.824045544950884 0.10207749344213746 2.3509886e-038
-0.056834402780214344 -2.618626260612911 -0.5482180720394003 2.3509886e-038
0.03729654970241303 -2.8725451865663483 0.20370201886891542 2.3509886e-038
-0.046455952970755776 -2.64217679306834 -0.4581146969362384 2.3509886e-038
0.048729384290120525 -2.869549619572705 0.3038211087563416 2.3509886e-038
0.05878693645696942 -2.7976746860584027 0.3947630305015646 2.3509886e-038
-0.024630073684448694 -2.6439841092200664 -0.27148968369469073 2.3509886e-038
0.07390778408552268 -2.925776116986849 0.516870657680524 2.3509886e-038
-0.014460906766232018 -2.7177330523659866 -0.1841063038587185 2.3509886e-038
0.0851768531841639 -2.897956645333492 0.6163518683054336 2.3509886e-038
-0.0036686068986017117 -2.724517429578291 -0.08982277311391526 2.3509886e-038
0.09616633202135061 -2.8628436785808735 0.7135707619057281 2.3509886e-038
-0.08454756792616736 -2.5007322904574223 -0.7065336018214405 2.3509886e-038
0.0037883502504812983 -2.6939927014471854 0.005056584617495287 2.3509886e-038
-0.08626556245106887 -2.9201239685197513 -0.7165883866633216 2.3509886e-038
0.015344792912345695 -2.856049278423969 0.10446332079514059 2.3509886e-038
-0.06519397157823936 -2.589292704643287 -0.5409527245072421 2.3509886e-038
0.027357596002754003 -2.872569093509228 0.2049386416607467 2.3509886e-038
-0.05480283688264309 -2.6027907200821763 -0.45015748945454004 2.3509886e-038
0.03880759371183162 -2.869570017164017 0.30505564996526824 2.3509886e-038
0.05120327022815552 -2.916488914447501 0.41278005384014904 2.3509886e-038
-0.03367575091900754 -2.6340525465162132 -0.2693311746367413 2.3509886e-038
0.06380271922962466 -2.925791843196426 0.5181280816398082 2.3509886e-038
-0.023620154011804062 -2.687814503695903 -0.1809191236246731 2.3509886e-038
0.07446204236541787 -2.8705922616902515 0.6117625792191963 2.3509886e-038
-0.013003446251167783 -2.7025390276935135 -0.0879325285066351 2.3509886e-038
0.08593908855497823 -2.8512140107018795 0.7118941152903147 2.3509886e-038
-0.0932475901872889 -2.500728540205224 -0.7054507457316677 2.3509886e-038
-0.005500344659208234 -2.673987277761046 0.006171689197205968 2.3509886e-038
-0.09680062303548054 -2.9317656820292957 -0.718178665960838 2.3509886e-038
-0.07301413107602317 -2.548184268047342 -0.5312639704563289 2.3509886e-038
0.017297754851816727 -2.852609693137316 0.20474401410783594 2.3509886e-038
-0.06364798840847719 -2.5948979313937066 -0.44767270277337023 2.3509886e-038
0.02904462077578962 -2.885464394053988 0.307988971752467 2.3509886e-038
0.04051059906311738 -2.8729116089282907 0.40785087999487557 2.3509886e-038
-0.04236004018126427 -2.6061832842595716 -0.2653578412842504 2.3509886e-038
0.05369636701315361 -2.925771733687501 0.5193862226094277 2.3509886e-038
-0.03223063326257447 -2.6299280770892772 -0.1758888087443896 2.3509886e-038
0.0651688528215153 -2.897944868021556 0.6188422310353259 2.3509886e-038
-0.022021745194155784 -2.6605383370103426 -0.08541879925661561 2.3509886e-038
0.07682627903764172 -2.8783418298332646 0.7199105496726166 2.3509886e-038
-0.10194630130748938 -2.5006943980572527 -0.7043675806207033 2.3509886e-038
-0.014728910440929721 -2.6679497124558496 0.007308545067191398 2.3509886e-038
-0.1060730459638497 -2.906482122852036 -0.7107372013076276 2.3509886e-038
-0.08086173985561462 -2.516831104435738 -0.5236463833198828 2.3509886e-038
0.007315094955513746 -2.808678430979718 0.20280412662952552 2.3509886e-038
-0.07254852811604828 -2.5909140005430573 -0.4458724174230324 2.3509886e-038
0.019199464703706592 -2.905300131833824 0.311362580296101 2.3509886e-038
0.030203481306289803 -2.837220168101005 0.4040124906883955 2.3509886e-038
-0.05096869630057277 -2.5842515347622146 -0.2620131970597277 2.3509886e-038
0.04359016560073736 -2.925715865738871 0.5206449003958662 2.3509886e-038
-0.04134825867811265 -2.629876278058001 -0.17475323155643996 2.3509886e-038
0.05494246462397967 -2.886153786864675 0.6175776144672478 2.3509886e-038
-0.030936659568397307 -2.6344972752124773 -0.08344733317141134 2.3509886e-038
0.06671618211419061 -2.8705216935234765 0.7192035782333914 2.3509886e-038
-0.1106458869598771 -2.5006297563722795 -0.7032838327889752 2.3509886e-038
-0.02301725500571039 -2.561883852090423 0.008123620208447917 2.3509886e-038
-0.0893288431605177 -2.5089333859256486 -0.5209314610993565 2.3509886e-038
-0.002294987272022153 -2.682930195836877 0.1948862883963806 2.3509886e-038
-0.080305276712486 -2.5514349650047303 -0.4379872133342235 2.3509886e-038
0.009140543723274441 -2.9012379164374584 0.31218632499745025 2.3509886e-038
0.021538044394637357 -2.9955220544893977 0.4278570349555233 2.3509886e-038
-0.05914831256060993 -2.5503531710888527 -0.2574819759879431 2.3509886e-038
0.03348567528980961 -2.925624529084981 0.5219039163040915 2.3509886e-038
-0.050083928743517636 -2.6098393229241523 -0.17229974573224305 2.3509886e-038
0.04516309182576672 -2.89779255675683 0.6213344985585192 2.3509886e-038
-0.04000421658662012 -2.6304126310385367 -0.08218497319768431 2.3509886e-038
0.05665866686497989 -2.8626676454729174 0.7184905894142444 2.3509886e-038
-0.119711204928167 -2.508228481037397 -0.7043604023978771 2.3509886e-038
-0.029399800411204713 -2.3618019148480234 0.008508872458359497 2.3509886e-038
-0.09743402897631337 -2.493177554383447 -0.5166010248203452 2.3509886e-038
-0.01123186055540959 -2.6030354743984603 0.19021282765563752 2.3509886e-038
-0.08882204551655848 -2.5414792363964986 -0.4351959285160337 2.3509886e-038
-8.940499998488782E-4 -2.913047669544898 0.3147256200850629 2.3509886e-038
-0.079621704904697 -2.579142958602746 -0.34999721961353103 2.3509886e-038
0.010815794732807471 -2.8964052125037076 0.41496547012718754 2.3509886e-038
-0.06757151966296704 -2.534329686236711 -0.25477924907167615 2.3509886e-038
0.023381636900883906 -2.92549784234876 0.5231634252075099 2.3509886e-038
-0.058724783851963 -2.5917671637581146 -0.16999408875162925 2.3509886e-038
0.03534917741205357 -2.9133053445402717 0.625942331943546 2.3509886e-038
-0.048745073051977506 -2.6103066208142733 -0.0804329188876079 2.3509886e-038
0.04703685493279297 -2.8780518886702184 0.7236226224738236 2.3509886e-038
-0.12863270400539628 -2.5119488529089913 -0.7043512884516074 2.3509886e-038
-0.04066647094108056 -2.5556557831367717 0.010311463362381736 2.3509886e-038
-0.03169862997141193 -2.6558190199758354 0.1028801262094175 2.3509886e-038
-0.10567983797916192 -2.483263267851962 -0.5134976741281632 2.3509886e-038
