VERSION 0.7
FIELDS x y z rgb
SIZE 4 4 4 4
TYPE F F F F
COUNT 1 1 1 1
WIDTH 653
HEIGHT 1
VIEWPOINT 0 0 0 1 0 0 0
POINTS 653
DATA ascii
3.5714438358567175 -1.7460443835283685 -0.26148755079341246 2.3509886e-038
2.0581850340027907 -1.0330215576084765 -0.7372014182156172 2.3509886e-038
3.5993947530105093 -1.754188855247011 -0.12335149996127026 2.3509886e-038
2.40153189744169 -1.2012693346892949 -0.7574289317545841 2.3509886e-038
3.5921440042012316 -1.745930301111334 0.01635764576235188 2.3509886e-038
2.844054292081813 -1.4185300549733046 -0.7778894834151713 2.3509886e-038
3.6146825938185136 -1.752118627736957 0.1566903038578693 2.3509886e-038
3.499367231900294 -1.7404500669538039 -0.813221898348949 2.3509886e-038
3.6256006611813345 -1.752606007815202 0.29805363821475206 2.3509886e-038
3.5157523332838765 -1.7437304863712297 -0.6746950425436214 2.3509886e-038
3.641299950331315 -1.7545623398367518 0.4413630002489861 2.3509886e-038
3.5351457195302256 -1.747749143757729 -0.5371413335784931 2.3509886e-038
3.661026296060347 -1.759120622517944 0.5875355321030373 2.3509886e-038
1.5775876632233912 -0.8035001986007497 -0.706003682152768 2.3509886e-038
3.544513493784823 -1.7522334005084605 -0.3984728315512121 2.3509886e-038
1.782553584195693 -0.9050606931416856 -0.7174569037376071 2.3509886e-038
3.5480695604460903 -1.748447605838894 -0.2596706647275778 2.3509886e-038
2.0481200927112084 -1.0362776562619738 -0.7344608692914347 2.3509886e-038
3.5828324938327607 -1.7607830363456443 -0.12244667669030851 2.3509886e-038
2.4147135728779894 -1.2181448360746359 -0.7624849314707469 2.3509886e-038
3.575605162168643 -1.7524523634247189 0.01684083431283545 2.3509886e-038
2.8499943177118396 -1.4329273363068755 -0.7803263856106779 2.3509886e-038
3.594845806435388 -1.756298730301631 0.15657169876700539 2.3509886e-038
3.4886339752481614 -1.7490315317472533 -0.8114923390472426 2.3509886e-038
3.6111690979208158 -1.7594164485681292 0.29782095024672195 2.3509886e-038
3.499688509009508 -1.7496536705119907 -0.6721548365148458 2.3509886e-038
3.6107971253462114 -1.7535729530224735 0.4388267782612949 2.3509886e-038
3.515464959322103 -1.751896536566449 -0.5344748925515759 2.3509886e-038
3.644864575661443 -1.7651208150518365 0.5863235672064646 2.3509886e-038
1.5782037110635954 -0.8106734413569947 -0.7072351614907331 2.3509886e-038
3.5315842547952423 -1.7604986066685235 -0.3971328047365342 2.3509886e-038
1.7962853321052044 -0.9197949035452991 -0.7239291125908915 2.3509886e-038
3.535135250679933 -1.7566664692255225 -0.2586105422387463 2.3509886e-038
2.0378741089535346 -1.0398486213031959 -0.731702740177949 2.3509886e-038
3.5608923555244116 -1.7646235615959496 -0.12135681145738206 2.3509886e-038
2.4158001129465028 -1.229014324040552 -0.7637349909888769 2.3509886e-038
3.5698209622174177 -1.7642001335705688 0.017378203849057194 2.3509886e-038
2.8521548660003724 -1.4461299460182002 -0.781782979167267 2.3509886e-038
3.565750320639289 -1.7565727358476075 0.15608947313068722 2.3509886e-038
3.4880604935725734 -1.7634837508489563 -0.8121725495152201 2.3509886e-038
3.5982154668147106 -1.7676485081631708 0.29776675069157643 2.3509886e-038
3.5079589979373584 -1.768533497774595 -0.6743214460753316 2.3509886e-038
3.590746583060124 -1.7582698930215779 0.4376219089375848 2.3509886e-038
3.502570756784136 -1.760113554996407 -0.5328570494703794 2.3509886e-038
3.623059904084947 -1.7690478870245154 0.5842812634865358 2.3509886e-038
1.57549121357971 -0.816151402493007 -0.7069826783587481 2.3509886e-038
3.515084582402053 -1.766908455759244 -0.39538992900349496 2.3509886e-038
1.8015754759744456 -0.9303157786903502 -0.727018118659233 2.3509886e-038
3.525447119732658 -1.7672227327633088 -0.25777975153745847 2.3509886e-038
2.0344034116425944 -1.046848450765379 -0.7313795376626822 2.3509886e-038
3.5425426394687727 -1.770125319109422 -0.12038822907695174 2.3509886e-038
2.4065651627645024 -1.2346328660331363 -0.7617269645567148 2.3509886e-038
3.551467243771988 -1.7696852803980603 0.017857718209651985 2.3509886e-038
3.288160085493965 -1.6819539413664284 -0.9023522576605822 2.3509886e-038
3.556074298598859 -1.7670663828921434 0.15650006910181335 2.3509886e-038
3.445561047772603 -1.7566059371732305 -0.8030870302179554 2.3509886e-038
3.578097124423272 -1.7722742057662035 0.2971219832977383 2.3509886e-038
3.4757278804661307 -1.7669431481878757 -0.6687028849743224 2.3509886e-038
3.5846589627985344 -1.7705075517517725 0.43818943042989766 2.3509886e-038
3.4875860547262696 -1.7679832226112226 -0.5309384406629356 2.3509886e-038
3.5903087460990726 -1.7682157115721526 0.5805448422196895 2.3509886e-038
1.5792033345197085 -0.8253505107940327 -0.709674413312958 2.3509886e-038
3.491173041833715 -1.7702440424042942 -0.3928175230015528 2.3509886e-038
1.7899541435520505 -0.9325138281238167 -0.7233387543038283 2.3509886e-038
3.5299777559956533 -1.7849364185011403 -0.2579859069134227 2.3509886e-038
2.0391799822295416 -1.0585919677911628 -0.7340795308195458 2.3509886e-038
3.5292436096946354 -1.7788373610961146 -0.11957112129646116 2.3509886e-038
2.3851351239989134 -1.2344399261134658 -0.7559035803026484 2.3509886e-038
3.5238745437836405 -1.7711890488518476 0.018320773348065367 2.3509886e-038
2.8627019259855193 -1.4772171696807614 -0.7865264720089908 2.3509886e-038
3.5427948351514895 -1.7757226754186448 0.15675700158578365 2.3509886e-038
3.430705179650201 -1.7643970159008342 -0.8004807345216727 2.3509886e-038
3.5505431870942474 -1.7738319830523976 0.2959118159411358 2.3509886e-038
3.460780335559813 -1.7747611371567888 -0.666436535950086 2.3509886e-038
3.567852152574142 -1.7774047071479278 0.4374534451970178 2.3509886e-038
3.477883563064684 -1.7784761621467546 -0.5298235557135246 2.3509886e-038
3.5841949511142186 -1.7803900586808652 0.5811166050820207 2.3509886e-038
1.5697217256125295 -0.8276544358596933 -0.7064433373417904 2.3509886e-038
3.4725971950673586 -1.776150963816146 -0.3908436211493261 2.3509886e-038
1.7800077520400892 -0.9355153087033219 -0.7203337856740364 2.3509886e-038
3.497091774719153 -1.7836618857733204 -0.2554555186705536 2.3509886e-038
2.0472754352536415 -1.072152342991397 -0.7379900057570254 2.3509886e-038
3.5408748605406175 -1.8001613934355238 -0.1195932576710578 2.3509886e-038
2.3893375406462485 -1.2474738195027446 -0.7582057303371645 2.3509886e-038
3.517719394012178 -1.7833764294749057 0.018897480689880286 2.3509886e-038
3.2763304836202494 -1.7054679968400608 -0.901245297273384 2.3509886e-038
3.5437662096737044 -1.7915206101372836 0.15765197397517472 2.3509886e-038
3.417267068865468 -1.7736152961273297 -0.7982487460176593 2.3509886e-038
3.5301456226955557 -1.7788113031060004 0.29529624592345183 2.3509886e-038
3.440569018150618 -1.7797784477511394 -0.6631550898704133 2.3509886e-038
3.5474878652942023 -1.7824214226891137 0.43628259583874107 2.3509886e-038
3.46462884151103 -1.7871054481520212 -0.5281672482043993 2.3509886e-038
3.560343011250331 -1.78367755894693 0.5788172575312425 2.3509886e-038
1.5765037318694386 -0.8389149414797785 -0.710592530558257 2.3509886e-038
3.461098082079679 -1.7855980369912208 -0.3896647626009392 2.3509886e-038
1.7750538843308135 -0.9411031612618698 -0.7193505999451608 2.3509886e-038
3.471357030225305 -1.7858303648351628 -0.25344670409300796 2.3509886e-038
2.036582734142478 -1.076362808650169 -0.7351862146029238 2.3509886e-038
3.5485282104083753 -1.8203794806305025 -0.11945451350349698 2.3509886e-038
2.3949615417455976 -1.2618835285934353 -0.7610214720080724 2.3509886e-038
3.531109969885283 -1.805556576549217 0.019588396034799227 2.3509886e-038
3.2497110016533117 -1.7063529956615462 -0.8949982022142331 2.3509886e-038
3.544669040499882 -1.807347676594905 0.1585549645611296 2.3509886e-038
3.4075899582641282 -1.7839675991528186 -0.7968538272064689 2.3509886e-038
3.5396709630074934 -1.7996379873017339 0.2972485901096813 2.3509886e-038
3.420054863057103 -1.7852807664815162 -0.6598434584835303 2.3509886e-038
3.5250481096530644 -1.7870238054809033 0.4349230743653494 2.3509886e-038
3.440807489870777 -1.7901745945838035 -0.5248983606328057 2.3509886e-038
3.5541756270915954 -1.7957477173525649 0.5793973088593156 2.3509886e-038
1.5735500052448919 -0.8446763133991186 -0.710314427648087 2.3509886e-038
3.4457327154746675 -1.7937555538801995 -0.38805503605148217 2.3509886e-038
1.781540512161841 -0.9532079072469772 -0.7230665792114397 2.3509886e-038
3.4577399736186005 -1.7948784878579056 -0.25231447682667335 2.3509886e-038
2.022714119663186 -1.07834859236627 -0.7311833389761808 2.3509886e-038
3.5528481414966175 -1.8382231086470755 -0.11921533131469983 2.3509886e-038
2.4007370095522695 -1.275920013656339 -0.7638502962865426 2.3509886e-038
3.5511826550854106 -1.8321311284777684 0.020362006696602486 2.3509886e-038
3.1644500674490263 -1.6767159590737122 -0.8726264102577583 2.3509886e-038
3.548744984480403 -1.8256391344992227 0.15965537447953626 2.3509886e-038
3.3857609057384943 -1.7878709983477765 -0.7926165627921384 2.3509886e-038
3.5600532634030237 -1.8254081948876597 0.3000805296908655 2.3509886e-038
3.413814969634347 -1.7973998156765059 -0.6592551423359944 2.3509886e-038
3.5383323136626057 -1.8089883338706214 0.43791615489576197 2.3509886e-038
3.4149408279306215 -1.792779312142971 -0.5213325275027536 2.3509886e-038
3.542364821303095 -1.8057034609985005 0.5791474812254558 2.3509886e-038
1.5640389482480748 -0.846887744297608 -0.7070782795273236 2.3509886e-038
3.425382083688736 -1.798444803189188 -0.38587649861846 2.3509886e-038
1.778188909510965 -0.9596842168028539 -0.7227500650927265 2.3509886e-038
3.4479520484348565 -1.8051019505019008 -0.2514661100406942 2.3509886e-038
2.0289964416654573 -1.091078274545005 -0.734470667731353 2.3509886e-038
3.544681496696083 -1.8496432206769433 -0.11855206328569273 2.3509886e-038
2.3894735223763193 -1.2809174752949168 -0.7612648338221961 2.3509886e-038
3.5572354471752137 -1.850873915461026 0.021037021726402316 2.3509886e-038
3.1945666218480984 -1.7072758749162755 -0.8820081308099428 2.3509886e-038
3.5495046816588403 -1.841531690520882 0.16057522191262807 2.3509886e-038
3.3656759539045993 -1.7925631698123317 -0.7887843026052412 2.3509886e-038
3.571441202168573 -1.846759523578532 0.3021775436362877 2.3509886e-038
3.4005688763068047 -1.8057976213973284 -0.6573150491589846 2.3509886e-038
3.5479718692291278 -1.8292426497789456 0.44048263579816305 2.3509886e-038
3.4051794288069197 -1.8029662375022446 -0.5202055488674536 2.3509886e-038
3.5414020100710424 -1.8204255405725067 0.5806036789338187 2.3509886e-038
1.5675824885214977 -0.8561680587336739 -0.7097502647459772 2.3509886e-038
3.4032822197114734 -1.802082055950856 -0.383499087531237 2.3509886e-038
1.7797772052805065 -0.9688500166439047 -0.7244504464025401 2.3509886e-038
3.438135984281387 -1.8152768104634185 -0.2506134859517719 2.3509886e-038
2.0318655028237282 -1.102049212331452 -0.7365366112981653 2.3509886e-038
2.381593185315316 -1.2876820756545033 -0.7597584940440638 2.3509886e-038
3.1920074381241177 -1.720554120828722 -0.8823872195073179 2.3509886e-038
3.57321481397018 -1.8694948973058825 0.16255024170259713 2.3509886e-038
3.3507764509638407 -1.7999160579357696 -0.7861657679024274 2.3509886e-038
3.565040476991189 -1.8589874072114618 0.3027841857938953 2.3509886e-038
3.376878306451078 -1.808539874382806 -0.6533542284181578 2.3509886e-038
3.5698589779894108 -1.8560031194992472 0.444597654368335 2.3509886e-038
3.386647326925524 -1.8084371110115451 -0.5177378115734413 2.3509886e-038
3.5526773865687837 -1.841537750966154 0.5840891925071352 2.3509886e-038
1.5710813365647207 -0.865485566572658 -0.7124172955222547 2.3509886e-038
3.389977173080386 -1.8102738990114413 -0.3821111406321018 2.3509886e-038
1.771418566682991 -0.972601324725916 -0.722108129228229 2.3509886e-038
3.410674106129937 -1.8160256332892841 -0.24847314204427828 2.3509886e-038
2.036355816658789 -1.1139704506021761 -0.7392037384575838 2.3509886e-038
3.499985228262883 -1.8573862735117914 -0.11627167840071001 2.3509886e-038
2.3787683654977947 -1.2971726025204913 -0.7598697215003158 2.3509886e-038
3.2098842803369445 -1.7449740921618264 -0.8884306467626983 2.3509886e-038
3.589705009148762 -1.8939112110419032 0.16421769349002424 2.3509886e-038
3.337591320286252 -1.8081167220440257 -0.7839494542026717 2.3509886e-038
3.5727183939645033 -1.8786186112362409 0.30460051458476234 2.3509886e-038
3.3497420774815487 -1.8092631623148616 -0.6487222079928521 2.3509886e-038
3.5757579900534444 -1.8746247394136193 0.4467480860616686 2.3509886e-038
3.3733547124888417 -1.8166198380353373 -0.5160698496733781 2.3509886e-038
3.5656014096488176 -1.8636640356987781 0.5878755433307181 2.3509886e-038
1.5745349796392738 -0.8748401721553011 -0.7150792464832101 2.3509886e-038
3.376657185197983 -1.8183934551500918 -0.38072021102092046 2.3509886e-038
1.7647045257644405 -0.9772172308244129 -0.720437381646637 2.3509886e-038
3.3870814370957896 -1.817901172296788 -0.24662087616529765 2.3509886e-038
2.025770163645974 -1.1176527194221197 -0.7364050637281851 2.3509886e-038
3.4899997674179017 -1.8676600980039577 -0.11553988139497331 2.3509886e-038
2.3843444676327543 -1.3112993799932946 -0.7626751357771093 2.3509886e-038
3.5131133967589303 -1.8745250499801407 0.022721842655318847 2.3509886e-038
3.207180966275904 -1.758332499805143 -0.8887930426017152 2.3509886e-038
3.586990507452539 -1.9075212845407754 0.164974647981599 2.3509886e-038
3.3312659930851583 -1.8200034531295706 -0.7833468954640717 2.3509886e-038
3.5838266308333844 -1.900192255861353 0.3067288858393007 2.3509886e-038
3.3330307829276418 -1.815475816966863 -0.6461059008714845 2.3509886e-038
3.5727826389080937 -1.888663637181463 0.44780705239060725 2.3509886e-038
3.3551384981008407 -1.8213015559007393 -0.5136291662211009 2.3509886e-038
3.5857437896408393 -1.8889799490401362 0.5928007143363743 2.3509886e-038
1.5698349264579907 -0.8796874540722128 -0.714047932559875 2.3509886e-038
3.3706359173806626 -1.829649981645005 -0.38014570366013745 2.3509886e-038
1.7729549160912543 -0.9897401710169391 -0.7248327657298621 2.3509886e-038
3.3737297357085985 -1.8259275790880292 -0.24550581521348366 2.3509886e-038
2.02184699982669 -1.1249789892161026 -0.7360306195590693 2.3509886e-038
3.4518352547262747 -1.8626983714213292 -0.11387503700521329 2.3509886e-038
2.381661692535273 -1.3203835923254041 -0.7627976689468645 2.3509886e-038
3.5069275804114315 -1.8860648574203385 0.023312428204074642 2.3509886e-038
3.1468998051988244 -1.739156290637045 -0.8731318170986271 2.3509886e-038
3.4940762705084594 -1.873589587840106 0.16161521423453784 2.3509886e-038
3.307743092411929 -1.8224156951042298 -0.7786999681234259 2.3509886e-038
3.579329349273 -1.9127882936314844 0.30747748554890064 2.3509886e-038
3.3270064800390347 -1.8266957765435958 -0.6455304476208962 2.3509886e-038
3.5806067671569064 -1.9077034438058214 0.450164929174409 2.3509886e-038
3.3313946630123477 -1.8236144951756488 -0.510358184470199 2.3509886e-038
3.5827073435548815 -1.9029897826025945 0.5940043990736819 2.3509886e-038
1.553945515955247 -0.8778251026372266 -0.7078678454870571 2.3509886e-038
3.346799399654317 -1.8319208093324821 -0.37756609908495053 2.3509886e-038
1.77111812337874 -0.9971113079483509 -0.7251720775330708 2.3509886e-038
3.3603644277983586 -1.8338820551372206 -0.24438792818496052 2.3509886e-038
2.0147717213989544 -1.1300621146674232 -0.7344597660380636 2.3509886e-038
3.4632437760883223 -1.8836445439389224 -0.11386361180107624 2.3509886e-038
2.3753514672220724 -1.3280134913929726 -0.7618155645002498 2.3509886e-038
3.5003756078603434 -1.8981889619067998 0.02393950692560809 2.3509886e-038
3.1645776418548563 -1.7636686816819926 -0.8791519122242464 2.3509886e-038
3.471754376985662 -1.8770568193208947 0.1615016633912305 2.3509886e-038
3.280821430144921 -1.822779654491219 -0.7732468499848892 2.3509886e-038
3.498964072434016 -1.8853100118624324 0.3017531119890018 2.3509886e-038
3.3102742923933004 -1.8327565260030294 -0.6429092100175718 2.3509886e-038
3.5897628227786895 -1.9283654092914717 0.4527852523636613 2.3509886e-038
3.316354235333379 -1.830571562866111 -0.5084184608555067 2.3509886e-038
3.590082934838279 -1.9226039517852556 0.5969552277304229 2.3509886e-038
1.5587784549554216 -0.8883942442266193 -0.7112420252453131 2.3509886e-038
3.322988313828368 -1.8340475746124878 -0.374987413909419 2.3509886e-038
1.7643381472611201 -1.0016916007891576 -0.723492570379219 2.3509886e-038
3.3539792101838284 -1.8456148446239702 -0.24377552371304473 2.3509886e-038
2.012265168106082 -1.1386532350347744 -0.7346658930525269 2.3509886e-038
3.4318263941745393 -1.8828148519010848 -0.1124000220051308 2.3509886e-038
2.3788508225782734 -1.3417181230492594 -0.7640406334778103 2.3509886e-038
3.4060423097093446 -1.8623175582377853 0.02395509495445819 2.3509886e-038
3.1414577488978392 -1.7654749367621374 -0.8738460129827901 2.3509886e-038
3.466995949341254 -1.8899560217784033 0.16220879219273132 2.3509886e-038
3.2710277437097877 -1.832551065838425 -0.7718283968125501 2.3509886e-038
3.4640666904659536 -1.8826500165730846 0.29998400126494884 2.3509886e-038
3.2932218175355716 -1.8393041402212043 -0.6402556441994657 2.3509886e-038
3.6002285968800343 -1.9506718703557482 0.45567037893796347 2.3509886e-038
3.3082338298884597 -1.841302696568766 -0.5075393539129268 2.3509886e-038
3.5938824532744817 -1.940410289700619 0.5993357756124686 2.3509886e-038
1.5556535623971566 -0.8940938473335058 -0.7109416594458062 2.3509886e-038
3.3110583908089875 -1.8433847194718234 -0.3737532366201232 2.3509886e-038
1.760641828306782 -1.008429122206763 -0.7231372116437753 2.3509886e-038
3.32977939599059 -1.8482237200135119 -0.2418590870212693 2.3509886e-038
2.021514457129012 -1.153489743802428 -0.739124439807656 2.3509886e-038
3.4182809562739482 -1.8908672377586804 -0.1115419972615953 2.3509886e-038
2.370798794756077 -1.3483746056500647 -0.7625112153223927 2.3509886e-038
3.4202639240404524 -1.8862709912934195 0.02476066100910168 2.3509886e-038
3.124821047052916 -1.7715306628232859 -0.8703955933285283 2.3509886e-038
3.4566065460963795 -1.9005537156332428 0.1627065584233912 2.3509886e-038
3.257796485891318 -1.8403479954313031 -0.7696000692646865 2.3509886e-038
3.4487969356124286 -1.8897159227812088 0.29985160466539207 2.3509886e-038
3.266178982662183 -1.8393640691522897 -0.6356249407920845 2.3509886e-038
3.616153181837905 -1.9753205832754084 0.4591999767067747 2.3509886e-038
3.299757751457155 -1.8525806004343797 -0.5066244754679883 2.3509886e-038
3.6007385917342876 -1.9607664879497433 0.6023397259040602 2.3509886e-038
1.5541176472335498 -0.9007154097609059 -0.7113750433755486 2.3509886e-038
3.302898026778828 -1.854028167166379 -0.37293814548112425 2.3509886e-038
1.7570994326487284 -1.0148322646342225 -0.7227958147680074 2.3509886e-038
3.305926935419939 -1.8501019864317556 -0.23997453007147335 2.3509886e-038
2.0158147087389104 -1.1598521600473601 -0.7381292990217205 2.3509886e-038
3.429165578103101 -1.912481088751907 -0.11147574178925695 2.3509886e-038
2.3760988767835354 -1.362655412723965 -0.7652846995805127 2.3509886e-038
3.3927363829035326 -1.886432613462003 0.025236459714487736 2.3509886e-038
3.1084934354920484 -1.7769306586597766 -0.8669735146688675 2.3509886e-038
3.434282751895211 -1.9037248684716546 0.16259778429629101 2.3509886e-038
3.2445518118707115 -1.8480736806217064 -0.7673689950448306 2.3509886e-038
3.440502580477461 -1.9005551756588237 0.30033086314108925 2.3509886e-038
3.2546094366645195 -1.8480193269876715 -0.6340030102757721 2.3509886e-038
3.604091210640707 -1.984758707066614 0.45919429560645386 2.3509886e-038
3.272592810541283 -1.852497159217258 -0.5028201136722216 2.3509886e-038
3.6078352197598482 -1.9805839147833826 0.6053222361950397 2.3509886e-038
1.5493442486171118 -0.9054609072498245 -0.7103330194936595 2.3509886e-038
3.284310842840722 -1.8587548502284317 -0.37094448751383163 2.3509886e-038
1.7616753433866554 -1.0259643825530138 -0.7258054249481389 2.3509886e-038
3.289377542998019 -1.8551843614843722 -0.23862673171316623 2.3509886e-038
2.0084471093093588 -1.165231711247511 -0.736526699122154 2.3509886e-038
3.3772067098277825 -1.8989188076157573 -0.10936587078097484 2.3509886e-038
2.3779938306474566 -1.3750638756736167 -0.766974631113764 2.3509886e-038
3.3687380362712096 -1.88838186364739 0.02573647889098163 2.3509886e-038
3.1022730855905345 -1.788059883586087 -0.8663722518018919 2.3509886e-038
3.4123076255046287 -1.9061769345243744 0.16245678784200346 2.3509886e-038
3.22110108142497 -1.8498733865987553 -0.7627215328631705 2.3509886e-038
3.421719786111482 -1.905538787468284 0.29989889223073285 2.3509886e-038
3.2447318828552425 -1.857594459794151 -0.6327114418486233 2.3509886e-038
3.6128608060708767 -2.0057134993469075 0.46185798740115347 2.3509886e-038
3.252678298216916 -1.855602487588449 -0.5001083967965279 2.3509886e-038
3.620375314918651 -2.002731952894492 0.6091559122512966 2.3509886e-038
1.5429558898909717 -0.9092390622245641 -0.7085532468954812 2.3509886e-038
3.264326341650286 -1.8618134238377202 -0.3687861822795627 2.3509886e-038
1.7647525249544966 -1.0358679954915775 -0.7281560261926527 2.3509886e-038
3.2759790595558718 -1.8627226512298876 -0.2374982493176077 2.3509886e-038
2.006004583533282 -1.1734616746689046 -0.7367352136209462 2.3509886e-038
3.346254318873396 -1.8968493015498935 -0.10794086012302664 2.3509886e-038
2.3617658591501014 -1.3764050043554157 -0.7627684753954163 2.3509886e-038
3.3485772225932458 -1.8915760861873496 0.02623086443452899 2.3509886e-038
3.099689612611609 -1.8005651866570034 -0.86673630811606 2.3509886e-038
3.3952474637886603 -1.91203012321522 0.1625972432628623 2.3509886e-038
3.204459873054392 -1.855456639594487 -0.7596830521899893 2.3509886e-038
3.4119690942229797 -1.9147125295915797 0.30020070387120934 2.3509886e-038
3.2402773863340886 -1.8695052369496552 -0.6324475846286595 2.3509886e-038
3.625347087053137 -2.0280755481043027 0.46494432058690505 2.3509886e-038
3.2358937507846792 -1.8611420942235384 -0.497894406113481 2.3509886e-038
3.6117222388455046 -2.01403276110345 0.6095356221396628 2.3509886e-038
1.5463155510939757 -0.9184000492459788 -0.7112004926588602 2.3509886e-038
3.2492099714723546 -1.8683069106888992 -0.36718159127103933 2.3509886e-038
1.7676009392026115 -1.0461267910556908 -0.7304836137085593 2.3509886e-038
3.2833490344590155 -1.8821007736368602 -0.23787266053199602 2.3509886e-038
2.0053796376115534 -1.1822929851062183 -0.7375638345712601 2.3509886e-038
3.3434614030064633 -1.9098766990503604 -0.10744433618404761 2.3509886e-038
2.360265099996436 -1.3868575264763776 -0.7633747571830558 2.3509886e-038
3.321152581296888 -1.8912744583657952 0.026701023876528618 2.3509886e-038
3.0866778595391375 -1.8077331010956512 -0.8642456229687179 2.3509886e-038
3.385137778967694 -1.9217351048433233 0.16307406620387654 2.3509886e-038
3.1864527883278746 -1.8593894964228008 -0.7562732836073172 2.3509886e-038
3.3792983032923587 -1.9116621602733856 0.29854517749931486 2.3509886e-038
3.211588033091788 -1.8680980690562392 -0.6274836614580204 2.3509886e-038
3.6408324745957 -2.0531110742886454 0.46852257052294743 2.3509886e-038
3.2259705064347366 -1.8705651272860686 -0.4967354156087197 2.3509886e-038
3.6289055153770677 -2.039839696946526 0.6142997894748983 2.3509886e-038
1.5430865444736974 -0.9240566784837951 -0.7108865012130692 2.3509886e-038
3.230644628768076 -1.872719692367141 -0.365185774499948 2.3509886e-038
1.7461263469188055 -1.0419347779746708 -0.7227580518922792 2.3509886e-038
3.2491447108988187 -1.877585161862954 -0.23523333602762278 2.3509886e-038
2.0143443236415894 -1.1973436882042687 -0.7419902878438274 2.3509886e-038
3.3229603258582663 -1.9135105380437682 -0.1063546544519586 2.3509886e-038
2.352090863933927 -1.3933881319890835 -0.761828203346905 2.3509886e-038
3.3076450974449947 -1.8987725050664022 0.02728306394453417 2.3509886e-038
3.063609955623635 -1.8089009501690732 -0.8589362752046421 2.3509886e-038
3.3802050265699415 -1.9343700838510345 0.1638069966156117 2.3509886e-038
3.1799522479984663 -1.870740187460743 -0.7556405894251619 2.3509886e-038
3.365744538983444 -1.919274069896601 0.2985753655045442 2.3509886e-038
3.203363203260213 -1.8784829805826895 -0.6265158872790458 2.3509886e-038
3.6492760713137846 -2.0743460611446034 0.4712225424914698 2.3509886e-038
3.222869034227612 -1.8839411328906344 -0.4966275933534382 2.3509886e-038
3.654559162873866 -2.0706629961226026 0.62054023220585 2.3509886e-038
1.5462071959022323 -0.9335481734479183 -0.7135091351764511 2.3509886e-038
3.222401167608446 -1.8830500315240473 -0.364355483839835 2.3509886e-038
1.7424675600107324 -1.048287732568508 -0.722401389276456 2.3509886e-038
3.227085813976704 -1.879885808560537 -0.23347308136258976 2.3509886e-038
2.015051454444202 -1.2075735879381662 -0.7433910969642128 2.3509886e-038
3.31630760356779 -1.9250531109837012 -0.10570600113058864 2.3509886e-038
2.3472090153916843 -1.4018547869718856 -0.7613521604274536 2.3509886e-038
3.2993193650996235 -1.909203869901669 0.027911570836988198 2.3509886e-038
3.0572796932316706 -1.8198709572261698 -0.8583188589181707 2.3509886e-038
3.357915738431929 -1.9370091124405884 0.16370219560849164 2.3509886e-038
3.1633005562266945 -1.8760715308941354 -0.7525968900288085 2.3509886e-038
3.3573644270789327 -1.9297977678714946 0.2990702601082873 2.3509886e-038
3.1832220751349416 -1.8818077209760915 -0.6232168490762515 2.3509886e-038
3.642095000820464 -2.086769662916486 0.47192326489333314 2.3509886e-038
3.195800649670924 -1.8832278867277499 -0.49282545597519656 2.3509886e-038
3.6697336069834767 -2.0957958550781397 0.6250431081267722 2.3509886e-038
1.536569828997902 -0.9353359379132604 -0.7102506840384433 2.3509886e-038
3.2089795069790457 -1.8903152571494646 -0.36293863373084745 2.3509886e-038
1.7420098841944944 -1.0565831563434958 -0.7233802166146905 2.3509886e-038
3.2171001920591777 -1.8891306179896767 -0.2325849038753705 2.3509886e-038
1.992862460007832 -1.2040187640127107 -0.7363435142601427 2.3509886e-038
3.3027120613862695 -1.932534020403951 -0.10483286130869263 2.3509886e-038
2.353852632770453 -1.4172618108080806 -0.7646256743622242 2.3509886e-038
3.26850284585001 -1.9064999697426974 0.028349879239409348 2.3509886e-038
3.0342401748129673 -1.820813525807187 -0.8530095437639125 2.3509886e-038
3.3391041070593714 -1.9415263370805609 0.16376607858177228 2.3509886e-038
3.1500158050425533 -1.8833188028079328 -0.7503533946378833 2.3509886e-038
3.354127499909797 -1.9432845304746265 0.30003273645959916 2.3509886e-038
3.1766515770503556 -1.8930892475614227 -0.6225743733863325 2.3509886e-038
3.646918837312463 -2.106125982130492 0.4741962170581999 2.3509886e-038
3.1721862103603162 -1.8843721891996181 -0.4895524213841529 2.3509886e-038
3.669345875502833 -2.1121722289610236 0.6269236909912541 2.3509886e-038
1.5285254901017962 -0.9380391483565012 -0.7077264156025791 2.3509886e-038
3.1887002639873527 -1.893444026840171 -0.36074473581747196 2.3509886e-038
1.7527726955313014 -1.0717714225093435 -0.7290365479281686 2.3509886e-038
3.201936779335365 -1.8952773690537388 -0.2313206400224605 2.3509886e-038
1.9967841608208334 -1.2161907617202434 -0.7389437683947333 2.3509886e-038
3.302881082254429 -1.9480703359686493 -0.10439257007440628 2.3509886e-038
2.3538294242041156 -1.4287348142582976 -0.7657469623522861 2.3509886e-038
3.3239476574483344 -1.9542870053450576 0.029550143799096595 2.3509886e-038
3.0212140396167246 -1.8276545229669106 -0.8505120192879729 2.3509886e-038
3.3185769197468367 -1.9449260576754583 0.1637454649881156 2.3509886e-038
3.1300066633090107 -1.8864487127801695 -0.7465062665217146 2.3509886e-038
3.331896003140495 -1.9457100151477513 0.2993005169265568 2.3509886e-038
3.1632785552045366 -1.9002866519478734 -0.6205998319203759 2.3509886e-038
3.6585221677901774 -2.12953777818811 0.47737595121735343 2.3509886e-038
3.1622123188249165 -1.8935207809307464 -0.4883828633232712 2.3509886e-038
3.675731577041857 -2.1325404054189487 0.6299860053785005 2.3509886e-038
1.5315575027662223 -0.9475480185075007 -0.7103383176536344 2.3509886e-038
3.1650226127500476 -1.8944094119171548 -0.35816461321615317 2.3509886e-038
1.7490106099265543 -1.078149494660177 -0.7286674190953939 2.3509886e-038
3.197055002563123 -1.9074783251013028 -0.23079712575495026 2.3509886e-038
1.9925195237319344 -1.2234176736180693 -0.7385252809924496 2.3509886e-038
3.289233879889924 -1.9554564157162013 -0.10351152728049401 2.3509886e-038
2.3504692221970145 -1.438213818711596 -0.7657913775429175 2.3509886e-038
3.2552218531980452 -1.9290695598436076 0.02965215290412615 2.3509886e-038
2.9799560743836144 -1.8172143089579682 -0.8400562513288132 2.3509886e-038
3.306668503672218 -1.9532882511492207 0.16415170364958254 2.3509886e-038
3.1200641996686005 -1.895564282683123 -0.7450591067222903 2.3509886e-038
3.309687259309117 -1.9480070981291544 0.2985674605828723 2.3509886e-038
3.1498954332883997 -1.9074123431607102 -0.618622934204244 2.3509886e-038
3.6014403591640174 -2.1128260625640154 0.4715905767535331 2.3509886e-038
3.1522131511619573 -1.902623904292101 -0.4872094604738727 2.3509886e-038
3.6820207252289614 -2.1529758886149244 0.633059411104339 2.3509886e-038
1.5362893498864318 -0.9577949080601116 -0.7136948786694133 2.3509886e-038
3.1553451298738295 -1.902902268641846 -0.35716246799117074 2.3509886e-038
1.7294029797258612 -1.0742500129026231 -0.7216322138574636 2.3509886e-038
3.1753514389113504 -1.9088257997622053 -0.2290662859672294 2.3509886e-038
2.00142023610204 -1.2382975187707776 -0.7429411175015668 2.3509886e-038
3.2553346940424404 -1.949873577379416 -0.10201653264642563 2.3509886e-038
2.34732493294326 -1.4472648730996465 -0.7658560159197039 2.3509886e-038
3.248858321433918 -1.9397578334415133 0.03027808721715136 2.3509886e-038
2.9904850891838444 -1.8375336432753953 -0.844138869479863 2.3509886e-038
3.295080954427505 -1.9610247708063153 0.1645277286964033 2.3509886e-038
3.1067547351361773 -1.9025866075741809 -0.7428090104466945 2.3509886e-038
3.3015604412449013 -1.957746718119629 0.2990429527367229 2.3509886e-038
3.1166299927526673 -1.901582128792567 -0.6127042806661919 2.3509886e-038
3.6937227128996284 -2.183119722855987 0.4853118504756455 2.3509886e-038
3.1442167713390767 -1.9121537384181089 -0.4863271248380334 2.3509886e-038
3.6954039795202065 -2.176869317358 0.6372828121332501 2.3509886e-038
1.5343301429769032 -0.9646889015977549 -0.7140798729328972 2.3509886e-038
3.145313391502823 -1.9119062639155102 -0.35612418157740233 2.3509886e-038
1.7320238608263132 -1.084546535151255 -0.7239321290179774 2.3509886e-038
3.155050138765729 -1.9116351927369812 -0.22742719906395228 2.3509886e-038
2.001715657660736 -1.2489328913443014 -0.744296955492163 2.3509886e-038
3.2311025522834447 -1.9514089576594107 -0.10078127055464553 2.3509886e-038
2.3370924439332414 -1.4530857038807696 -0.7637269495658816 2.3509886e-038
3.242121980690275 -1.9509854658820118 0.03094204091566599 2.3509886e-038
2.9890165969748748 -1.8513151244834032 -0.8449071866501778 2.3509886e-038
3.274569980418949 -1.9641323181478132 0.16450963676004804 2.3509886e-038
3.1001054260242715 -1.9136564572747723 -0.7421534371347009 2.3509886e-038
3.2841677398783418 -1.9634662139444783 0.29881111709616937 2.3509886e-038
3.102939557968317 -1.9090458151638394 -0.6106943865318878 2.3509886e-038
3.694322072508825 -2.2014058817574877 0.48722018309643156 2.3509886e-038
3.1223337325226588 -1.9139166206218379 -0.48331436191338595 2.3509886e-038
3.7082897091325115 -2.2014978942239276 0.6415567125481907 2.3509886e-038
1.5293690138974223 -0.9693088796418641 -0.7130124739760675 2.3509886e-038
3.1349246252093415 -1.9214125326950737 -0.35504926367387313 2.3509886e-038
1.7328088111066826 -1.0941854644218616 -0.7255398176213967 2.3509886e-038
3.1432869963696413 -1.919528093028055 -0.22640227374301597 2.3509886e-038
1.984419998641703 -1.2480549320474892 -0.7390538406285305 2.3509886e-038
3.224318952087374 -1.9626315014949385 -0.10011135591979445 2.3509886e-038
2.345068311373037 -1.4696882046674093 -0.7675001346921584 2.3509886e-038
3.1973910662454976 -1.9399265211594092 0.031276783831964416 2.3509886e-038
2.9822158592426637 -1.862555307221989 -0.8442354131503051 2.3509886e-038
3.2677565586335646 -1.9753910752085129 0.1651827003142241 2.3509886e-038
3.076778575889041 -1.9143476645557178 -0.7375041700395959 2.3509886e-038
3.284195013520268 -1.9788163118236004 0.3001076601776953 2.3509886e-038
3.096275634007459 -1.9200445229904002 -0.6100358889224556 2.3509886e-038
3.6935172817709656 -2.218069590935195 0.4888752428595713 2.3509886e-038
3.105538923499931 -1.9186737435359342 -0.48108693648056133 2.3509886e-038
3.707467491522759 -2.2181143651490487 0.6434875206319182 2.3509886e-038
1.5196905685885895 -0.9708994022592686 -0.7097458456680308 2.3509886e-038
3.1150162329953366 -1.9234948221466033 -0.3528852546778927 2.3509886e-038
1.7450695794033395 -1.1102988838529901 -0.7318504085993984 2.3509886e-038
3.1332073276787895 -1.928408418690891 -0.22549672821496666 2.3509886e-038
1.991322919836266 -1.2623885103058181 -0.7428279374478524 2.3509886e-038
3.203863101226684 -1.9654667001326565 -0.09901489438615366 2.3509886e-038
2.340179999016514 -1.4777105581449579 -0.7670163840934046 2.3509886e-038
3.208056245287796 -1.9608537201934642 0.03208073420619645 2.3509886e-038
2.969443415726973 -1.868560029929825 -0.8417564695809105 2.3509886e-038
3.2882059529970054 -2.0032588745642164 0.16724971521522003 2.3509886e-038
3.058466657982665 -1.9180215602933277 -0.7340524386344582 2.3509886e-038
3.2913174568783345 -1.9977654965752167 0.30200365936430384 2.3509886e-038
3.0865634977025604 -1.928381254966224 -0.6087456519354127 2.3509886e-038
3.7100281324362063 -2.24441075370526 0.492758999364479 2.3509886e-038
3.0887493280745963 -1.923336837833316 -0.47885869898715894 2.3509886e-038
3.7065741873693576 -2.2347500587799085 0.6454271177098043 2.3509886e-038
1.5258406417397397 -0.9822295743549169 -0.7138174714163794 2.3509886e-038
3.098175219988852 -1.9281119344022315 -0.3510720493759144 2.3509886e-038
1.731650236281208 -1.1105446779145796 -0.7274635419188888 2.3509886e-038
3.1163188654168863 -1.9330322281706027 -0.22409957463767632 2.3509886e-038
1.9855120285959327 -1.2682111134805671 -0.741810546695991 2.3509886e-038
3.2007755724630162 -1.9781396516393985 -0.0984761660298118 2.3509886e-038
2.3285019127945525 -1.4819978829866052 -0.7643682573948163 2.3509886e-038
3.1842192767827537 -1.9614501702902123 0.032581717141469346 2.3509886e-038
2.9596233457015453 -1.8771121213149577 -0.8401758510090367 2.3509886e-038
3.298284730644443 -2.025017834902032 0.1688104664403013 2.3509886e-038
3.0467947930534436 -1.9257778537382184 -0.7321932400499884 2.3509886e-038
3.28609573459075 -2.010063044665039 0.3028470600798623 2.3509886e-038
3.059801423645665 -1.9267088767103577 -0.60412297660427 2.3509886e-038
3.732800369990255 -2.2756534520640326 0.4976009958245846 2.3509886e-038
3.082042829581014 -1.9342293898660525 -0.4781932532223574 2.3509886e-038
3.7191333120598395 -2.2596213050019753 0.649737896711867 2.3509886e-038
1.5206565089213342 -0.9870811500611243 -0.7127259760415039 2.3509886e-038
3.079653392548474 -1.9315775153735872 -0.3490669316398238 2.3509886e-038
1.7245865042066644 -1.11480171240343 -0.7257436961979582 2.3509886e-038
3.10282207042553 -1.9396770128556158 -0.22294500394067918 2.3509886e-038
1.9872599882243733 -1.2798909270557632 -0.7437480328733315 2.3509886e-038
3.152828774089926 -1.9644372439311328 -0.09651212781584612 2.3509886e-038
2.3295424346381046 -1.4949655284214156 -0.7659605351273717 2.3509886e-038
3.160417621141774 -1.9619043928494562 0.033080514882556866 2.3509886e-038
2.9366704356356017 -1.8772387917844862 -0.8348646382949347 2.3509886e-038
3.3116506198233253 -2.0489723766206236 0.17055862540469313 2.3509886e-038
3.0433731743442944 -1.9387399429524237 -0.7323201416807721 2.3509886e-038
3.2940554201940158 -2.031281869558861 0.3049882317065762 2.3509886e-038
3.036085300480682 -1.9275237851281428 -0.6001290299948787 2.3509886e-038
3.7380726496321346 -2.2973108077526243 0.5002358042832611 2.3509886e-038
3.071947710664917 -1.9429777610290577 -0.4770023889943834 2.3509886e-038
3.7450591558362802 -2.292865418361126 0.6564285116668462 2.3509886e-038
1.521862541388849 -0.9957070644445061 -0.7145751470820951 2.3509886e-038
3.069223288759944 -1.940794479602772 -0.3479823664151512 2.3509886e-038
1.726798957406492 -1.1255130463094463 -0.7279991636852352 2.3509886e-038
3.0859389443876424 -1.9441234233452926 -0.22154577324117264 2.3509886e-038
1.9907761140984406 -1.2922808447641931 -0.7463011953400447 2.3509886e-038
3.149387737389227 -1.9775124865374027 -0.09593562258257204 2.3509886e-038
2.3259273773080453 -1.504401925409689 -0.7659725391918535 2.3509886e-038
3.1397007473571814 -1.9648827949555225 0.03364746046650363 2.3509886e-038
2.936316267017398 -1.892498034277608 -0.836040236529807 2.3509886e-038
3.3198032732755323 -2.069869590713793 0.17205711346144148 2.3509886e-038
3.0464963148497457 -1.955939160415073 -0.734030150060726 2.3509886e-038
3.314112332720982 -2.0593842015502006 0.3082090729131175 2.3509886e-038
3.0326823477627123 -1.940411949357495 -0.6001167337641612 2.3509886e-038
3.7402559736334196 -2.316306199395191 0.5023893992925408 2.3509886e-038
3.048451084190628 -1.9431529812453374 -0.47372896047701707 2.3509886e-038
3.7539653258757864 -2.3159251835882086 0.6601787553919249 2.3509886e-038
1.5183661124912464 -1.0012796046612948 -0.7142265659659439 2.3509886e-038
3.062802708714278 -1.951025154598828 -0.34734222212087995 2.3509886e-038
1.7230485427902265 -1.131486675766543 -0.7276252035102626 2.3509886e-038
3.0589498553636125 -1.9420562405150876 -0.21942051946807858 2.3509886e-038
1.9654911942389257 -1.2859093411352729 -0.7380553454873888 2.3509886e-038
3.1273086343668064 -1.9788282290352313 -0.09478923387597402 2.3509886e-038
2.3403066743050056 -1.5249898460672835 -0.7718659066908438 2.3509886e-038
3.160289159226361 -1.9922532382447988 0.03459012122424482 2.3509886e-038
2.9496069803335954 -1.9152029935048245 -0.8409949353792836 2.3509886e-038
3.316007131421994 -2.083407209470738 0.17294987383796734 2.3509886e-038
3.0446008445010766 -1.9699898462508973 -0.7345395581388192 2.3509886e-038
3.3225441391321477 -2.0796716497876626 0.3103058956682032 2.3509886e-038
3.046148812344191 -1.9634518155498633 -0.6034166539572563 2.3509886e-038
3.7528721677968724 -2.3410139169064745 0.505876539297248 2.3509886e-038
3.041676910953529 -1.9539040269950259 -0.4730528933572937 2.3509886e-038
3.7593969028687795 -2.336981893521231 0.6633491214807135 2.3509886e-038
1.505722195408511 -1.0003810048276658 -0.7095087989381537 2.3509886e-038
3.0493060009090023 -1.9574689722970071 -0.34590326932700943 2.3509886e-038
1.723797926290561 -1.1408842202720915 -0.7292247751306695 2.3509886e-038
3.0659868171850917 -1.960804388231782 -0.21974369610211014 2.3509886e-038
1.9755498667577074 -1.302122530208509 -0.743020595919186 2.3509886e-038
3.120775521615602 -1.9891462345085742 -0.09413644072151939 2.3509886e-038
2.317242384545932 -1.5217786382610656 -0.7654769133604431 2.3509886e-038
3.1061052304131915 -1.9731451242426763 0.03475255227415336 2.3509886e-038
2.9559316093337493 -1.934291156141895 -0.8440438540872721 2.3509886e-038
3.3294031362244034 -2.107057844457697 0.17469906656503797 2.3509886e-038
3.0462753457160288 -1.9856500696859414 -0.7358696788412518 2.3509886e-038
3.3187113566730853 -2.0931597889089693 0.311342570377376 2.3509886e-038
3.0657688397431864 -1.991445822346995 -0.6079813583735697 2.3509886e-038
3.8389765739273645 -2.4129954680801085 0.5194334685079169 2.3509886e-038
3.051856232221155 -1.974868980169562 -0.47499731965539993 2.3509886e-038
3.7651318603654285 -2.35746390445311 0.6664906582835168 2.3509886e-038
1.5083978044518698 -1.0100396592830765 -0.7120786404710007 2.3509886e-038
3.0562059472514935 -1.976282409826871 -0.3467729109699333 2.3509886e-038
1.7137195648067372 -1.1426628368251293 -0.7261843216778161 2.3509886e-038
3.0625214296847583 -1.9736692453077107 -0.21930129385215838 2.3509886e-038
1.9773457306522713 -1.3135008189331372 -0.744959359373492 2.3509886e-038
2.3105752591921194 -1.5286437773951307 -0.7644384771615078 2.3509886e-038
3.1130745145580176 -1.9919634368494354 0.0355579609572268 2.3509886e-038
2.9527559601929907 -1.946493683936598 -0.8443295043515091 2.3509886e-038
3.343995039752467 -2.132467122795976 0.17658735033255624 2.3509886e-038
3.0573626492669668 -2.008343991030924 -0.7395346405382852 2.3509886e-038
3.3236021828499975 -2.1114241699817193 0.3131423760766274 2.3509886e-038
3.0690737996975193 -2.00825294819385 -0.6092867715486283 2.3509886e-038
3.9317715637083746 -2.489171492745492 0.5339063260910573 2.3509886e-038
3.06324527104883 -1.9975478717058732 -0.47715412319472994 2.3509886e-038
3.8640364102987133 -2.4377424078862746 0.6863221984342285 2.3509886e-038
1.5142911903434684 -1.021536831540973 -0.7161209739134231 2.3509886e-038
3.071009187670647 -2.001135728596667 -0.34854414328757954 2.3509886e-038
1.7081466485158259 -1.1478519402475769 -0.7251179542863935 2.3509886e-038
3.0707240692292395 -1.9941448776934245 -0.21969088923078206 2.3509886e-038
1.9793183622142863 -1.3245501088917466 -0.7469149514015911 2.3509886e-038
2.3228714775369226 -1.5487320318239752 -0.7697494768159443 2.3509886e-038
2.9621547325227717 -1.9678375568783117 -0.8482873718815986 2.3509886e-038
3.351727095571296 -2.1536807537762517 0.17813326940462337 2.3509886e-038
3.0699646175769066 -2.03222533795696 -0.7435822450031813 2.3509886e-038
3.331398460226165 -2.1324611558137447 0.3153066505576694 2.3509886e-038
3.075243803256685 -2.027822507227527 -0.611202687891321 2.3509886e-038
3.9248309017244676 -2.5036129590759053 0.5349993164518643 2.3509886e-038
3.0794864491140532 -2.023598034014986 -0.48007272355469766 2.3509886e-038
3.9323853941161553 -2.4996193483484164 0.7008520480319718 2.3509886e-038
1.5105251705162293 -1.0273611099322841 -0.7157427510300562 2.3509886e-038
3.089005956116411 -2.028302862611884 -0.3506784308255311 2.3509886e-038
1.7134927941104694 -1.160420837573478 -0.7286991415817163 2.3509886e-038
3.067127858224837 -2.0070493152949522 -0.21923281976226724 2.3509886e-038
1.969699016004038 -1.3288752412735534 -0.7446311094460563 2.3509886e-038
2.3123788336127835 -1.554290811530728 -0.7675839902870765 2.3509886e-038
2.9326418750562397 -1.963298610756266 -0.8411046608193695 2.3509886e-038
3.364383232079663 -2.1782298565852245 0.1799605258091832 2.3509886e-038
3.0840687581448205 -2.057309900817911 -0.7480111827670128 2.3509886e-038
3.3403916263642017 -2.1552280392154564 0.3176797222450256 2.3509886e-038
3.0842456213716662 -2.0501917063683828 -0.6137255197960185 2.3509886e-038
3.8990188563096666 -2.506881233142805 0.5336268750288016 2.3509886e-038
3.0922765617131764 -2.0475985864804294 -0.482459617977423 2.3509886e-038
3.942062325496522 -2.5246544092376624 0.7049973350789396 2.3509886e-038
1.5053821696753953 -1.0318424507590547 -0.7146505624259079 2.3509886e-038
3.091551616324192 -2.0462746519587016 -0.3510634235646392 2.3509886e-038
1.7154522433756134 -1.1712291502695469 -0.7309246872511792 2.3509886e-038
3.0734807366726207 -2.0265460093021117 -0.2194824862340488 2.3509886e-038
1.9587305959369183 -1.3317184346374882 -0.7417717589576993 2.3509886e-038
3.174774199315022 -2.0861494874082123 -0.09375605385942185 2.3509886e-038
2.313326299515722 -1.5669462644183163 -0.7691598357558012 2.3509886e-038
3.116960678361975 -2.041124470965886 0.03799520261481565 2.3509886e-038
2.904469499457061 -1.960181496713214 -0.834356479281473 2.3509886e-038
3.353482449258769 -2.187608138033906 0.1805408841790399 2.3509886e-038
3.083393180998169 -2.072676003542059 -0.7488685652418792 2.3509886e-038
3.3579957430391176 -2.182947070766099 0.3208271530993345 2.3509886e-038
3.093486848658999 -2.0721065205068943 -0.6162710885076975 2.3509886e-038
3.8870071912178497 -2.517978868846809 0.5340424493883229 2.3509886e-038
3.0950390880426304 -2.0651082289519356 -0.48328655974110957 2.3509886e-038
3.9183767862475536 -2.5283396890614798 0.7031926391317924 2.3509886e-038
1.491033837273883 -1.029948239607179 -0.7091834739401015 2.3509886e-038
3.0980368948331334 -2.0654166687550366 -0.35188656117962736 2.3509886e-038
1.7099964375024523 -1.1760976969414911 -0.7298678547051258 2.3509886e-038
3.0913745828026897 -2.0538462300499 -0.22055133144377553 2.3509886e-038
1.969812105189079 -1.3496018076134144 -0.7472748695434046 2.3509886e-038
3.1325146727853554 -2.0739948173655023 -0.09199682779404295 2.3509886e-038
2.30971069345957 -1.5759517666521794 -0.7691650766314038 2.3509886e-038
3.0985439252749205 -2.0436453141359108 0.038528649209773225 2.3509886e-038
2.8673876747853004 -1.9492862226583625 -0.8249046960781177 2.3509886e-038
3.36092101244574 -2.209008665660813 0.18212042726040856 2.3509886e-038
3.003105904908908 -2.0341860462051646 -0.730372559836276 2.3509886e-038
3.362487276962103 -2.2014963642967595 0.32267216758213557 2.3509886e-038
3.0997054664579786 -2.0913558714209155 -0.6181880651866482 2.3509886e-038
3.8687443987813888 -2.5240234252506197 0.5335009816051357 2.3509886e-038
3.097717077547262 -2.0826643119057917 -0.48410370167383077 2.3509886e-038
3.8913973148519756 -2.5297354414945916 0.7007902718958503 2.3509886e-038
1.4998315213431823 -1.0436495170371 -0.714664904116947 2.3509886e-038
3.0974572340170496 -2.080726407484594 -0.35191157708740495 2.3509886e-038
1.707423946126077 -1.1834021673372264 -0.7301146263011113 2.3509886e-038
3.1074580476457174 -2.080183825535676 -0.22148537235052632 2.3509886e-038
1.9700351991942426 -1.3596339783555087 -0.7486123636771449 2.3509886e-038
2.301018524590109 -1.5820875421556089 -0.7675479267418339 2.3509886e-038
3.113103246022167 -2.0687369050764466 0.03952016382951834 2.3509886e-038
2.8637851031733006 -1.961759639145352 -0.8251413907266023 2.3509886e-038
3.3865759902854156 -2.242618775691338 0.18471160438416112 2.3509886e-038
2.9555164363277995 -2.0172553727663898 -0.7197946289826522 2.3509886e-038
3.3565247978555512 -2.2140869892149184 0.3236033288518141 2.3509886e-038
2.9732832333295276 -2.021357433821798 -0.593665160552143 2.3509886e-038
3.8633282501160635 -2.539361320845082 0.5348436049357916 2.3509886e-038
3.1003119556742877 -2.100263196060288 -0.48491116464138684 2.3509886e-038
3.8760332752598288 -2.5385610439584925 0.7004785739122013 2.3509886e-038
1.4959848716067436 -1.049420759353182 -0.7142758220677603 2.3509886e-038
3.1116493006657913 -2.106103668750519 -0.35361488380133654 2.3509886e-038
1.6939932905304202 -1.1831399701488294 -0.7257183988495495 2.3509886e-038
3.113463697397936 -2.0999614355264002 -0.2216962026799154 2.3509886e-038
1.9603334937755303 -1.3638580922862595 -0.7463166717813359 2.3509886e-038
3.157889014777589 -2.122490913682678 -0.09169214240018225 2.3509886e-038
2.293620054265537 -1.5896944034766705 -0.7664299922126179 2.3509886e-038
3.1158918026133655 -2.0861663765130887 0.04037621526040586 2.3509886e-038
2.8601308198437776 -1.974233972683416 -0.8253717236960791 2.3509886e-038
3.390432380743626 -2.262018025925882 0.18613756401192738 2.3509886e-038
2.9436254912650854 -2.02445739537404 -0.7178995820827343 2.3509886e-038
3.3683895938284785 -2.2393773918815496 0.32634888871864964 2.3509886e-038
2.9512276490633322 -2.0223865889705097 -0.5899866978986151 2.3509886e-038
3.834223835723164 -2.5399849476614014 0.5330150577421005 2.3509886e-038
2.981591735410063 -2.0351593069839264 -0.4667316809717612 2.3509886e-038
3.8656045937378853 -2.5505802466813883 0.7010679922590826 2.3509886e-038
1.4968660674654841 -1.058129228902133 -0.7160858468790128 2.3509886e-038
3.0694064287100016 -2.0939990612534194 -0.34890804421836086 2.3509886e-038
1.6958097198671078 -1.193967108932336 -0.7279264368775051 2.3509886e-038
3.121022297331232 -2.1209269289993236 -0.22201325246911302 2.3509886e-038
1.9664998875239965 -1.378631824269009 -0.7500059397362961 2.3509886e-038
3.16706980308369 -2.14466536148965 -0.09142253926928876 2.3509886e-038
2.3117775654130486 -1.6145234082910815 -0.7738054360481652 2.3509886e-038
3.134811093749803 -2.115363111507693 0.04149823800501373 2.3509886e-038
2.8369117693739145 -1.9738805928661878 -0.8200199287260379 2.3509886e-038
