VERSION 0.7
FIELDS x y z rgb
SIZE 4 4 4 4
TYPE F F F F
COUNT 1 1 1 1
WIDTH 660
HEIGHT 1
VIEWPOINT 0 0 0 1 0 0 0
POINTS 660
DATA ascii
3.21505289027248 -2.415565880701336 -0.3659501437608536 2.3509886e-038
1.6470313413635236 -1.2793810543013069 -0.7250772343219662 2.3509886e-038
3.3076320991198704 -2.475718584783085 -0.23115235907899073 2.3509886e-038
1.9225307085342562 -1.4871292557147706 -0.7511712949352223 2.3509886e-038
2.2557606294334254 -1.7371086979154025 -0.7723326571266136 2.3509886e-038
3.220738117143686 -2.391634810351724 0.05545083977290999 2.3509886e-038
2.7951999036326898 -2.1438830156460673 -0.8249539497389957 2.3509886e-038
9.088158883942079 -6.723031714715889 0.5507731697892817 2.3509886e-038
3.0044056867024063 -2.2952515153845403 -0.7474521268451173 2.3509886e-038
8.944210142063564 -6.588918449657062 0.9301395296720409 2.3509886e-038
2.9840188780195245 -2.2699778303748257 -0.6063294469102447 2.3509886e-038
9.080067918532059 -6.663227580878788 1.3396757819675025 2.3509886e-038
2.985858651636547 -2.2626392862100224 -0.4725344379237024 2.3509886e-038
8.11576174645803 -5.932357729412694 1.5527859734273521 2.3509886e-038
1.4620841179402355 -1.1491282397792135 -0.719618265325759 2.3509886e-038
3.232060060341812 -2.446075942637167 -0.3679700185256273 2.3509886e-038
1.6499906455463071 -1.2912114131987469 -0.7278934931891716 2.3509886e-038
1.9130659441438052 -1.4902321131931744 -0.7488872855213233 2.3509886e-038
3.2924149065464805 -2.4719578875917447 -0.08574620751807843 2.3509886e-038
2.263416462159997 -1.7558924915958887 -0.7764103905249164 2.3509886e-038
3.2524728543064096 -2.432696765543276 0.0570154605099874 2.3509886e-038
2.786172652855 -2.1527154113655422 -0.8237201610811824 2.3509886e-038
9.101691647863172 -6.781680545625928 0.5554445426984396 2.3509886e-038
3.0228316422228776 -2.3263095839298575 -0.7532062645751458 2.3509886e-038
8.977402631156071 -6.661023456442257 0.9383677913777739 2.3509886e-038
3.004316445384651 -2.302176612187305 -0.6112462411500426 2.3509886e-038
9.098533335000864 -6.724748787575399 1.3482264179864023 2.3509886e-038
2.9953287543164584 -2.2864155686667815 -0.47446333936635865 2.3509886e-038
8.085701237995783 -5.952729819021478 1.5530844745315457 2.3509886e-038
1.4520055526334295 -1.1501308341958163 -0.7162928274032703 2.3509886e-038
3.25206141414315 -2.479151618277417 -0.370331322801445 2.3509886e-038
1.6588233998786275 -1.3077591046390933 -0.7333263680230677 2.3509886e-038
4.17936865783687 -3.173884664091587 -0.29132581305185534 2.3509886e-038
1.9136044765793039 -1.5022379150428395 -0.7506763012046282 2.3509886e-038
3.2881817083756384 -2.487573522976309 -0.08493131522207831 2.3509886e-038
2.2584922805780057 -1.7656528583409918 -0.7762622606611611 2.3509886e-038
2.7786550988810896 -2.1627079102065427 -0.8229376191523243 2.3509886e-038
9.137292415967849 -6.857291037851306 0.5615254573524675 2.3509886e-038
3.03332553852774 -2.3515157299759917 -0.7570055709195469 2.3509886e-038
8.997867066703735 -6.726612349022718 0.9455874811040577 2.3509886e-038
9.13143089438075 -6.799883493386329 1.3593070709325592 2.3509886e-038
3.003097723341657 -2.309075570116602 -0.4761283267629004 2.3509886e-038
8.046064613009733 -5.965905273749595 1.5515543544545185 2.3509886e-038
1.442142183410012 -1.1508066343208274 -0.7129891070641092 2.3509886e-038
3.261958894064764 -2.5056890423818814 -0.3715465456187454 2.3509886e-038
1.6643708085956073 -1.3223431638009382 -0.7374136296562734 2.3509886e-038
4.166749734674865 -3.187251996274049 -0.2900656360446325 2.3509886e-038
1.902353723884425 -1.5044376821379368 -0.7477716838247295 2.3509886e-038
4.590087198469027 -3.497607061203689 -0.11761059185980699 2.3509886e-038
2.2477721052150135 -1.7702152505456907 -0.7740522759365567 2.3509886e-038
3.3306979657392985 -2.5282222028236 0.06056014874963089 2.3509886e-038
2.7232188991506634 -2.1359091801946013 -0.8080151032271343 2.3509886e-038
9.169292761448858 -6.930810639260166 0.5674554629213082 2.3509886e-038
3.0390420246826118 -2.3732022724353863 -0.7596296178669202 2.3509886e-038
9.020738260189333 -6.79209043636572 0.9528938616334481 2.3509886e-038
3.118748636675611 -2.4258228765156113 -0.636236716767677 2.3509886e-038
9.15079374388108 -6.863053335789493 1.3681742474230916 2.3509886e-038
3.0264356721330827 -2.3439701336223893 -0.4802693816274186 2.3509886e-038
8.009599595899404 -5.9812449723877315 1.5506398252788438 2.3509886e-038
1.4468343341153764 -1.1631153561285523 -0.7168913629164655 2.3509886e-038
3.272585711425073 -2.5311839918463224 -0.37283655719230113 2.3509886e-038
1.6511198289420137 -1.321031446447222 -0.7330243201662474 2.3509886e-038
4.147759872896064 -3.195696834427941 -0.28835941439520996 2.3509886e-038
1.8955967336027162 -1.5101480754210301 -0.7466336484262175 2.3509886e-038
4.557316824714137 -3.4977090856408095 -0.11581850477213007 2.3509886e-038
2.2403824723493684 -1.7767191856167037 -0.7729169528853994 2.3509886e-038
9.210781013511845 -7.039415193822197 0.1703062992075135 2.3509886e-038
2.71919133313548 -2.147603958600466 -0.8081841275735548 2.3509886e-038
9.197710246648748 -7.002214413117345 0.573233116030301 2.3509886e-038
9.058737695087288 -6.867096520304479 0.9616337404731379 2.3509886e-038
3.0329873509686482 -2.375454881237502 -0.6195210161979635 2.3509886e-038
9.196374613856232 -6.944022388182011 1.3807617177709557 2.3509886e-038
3.0448719875041474 -2.3753968391029288 -0.4836419714327602 2.3509886e-038
7.969965756533034 -5.994025773138981 1.5491156347155561 2.3509886e-038
1.4487635196927684 -1.1728595439415932 -0.7193671803765183 2.3509886e-038
3.2794927598844117 -2.5549071865687303 -0.37370700754153063 2.3509886e-038
1.6406095911096061 -1.3223137869672044 -0.7299224735677963 2.3509886e-038
4.14927258090296 -3.219960780748279 -0.2880748144660771 2.3509886e-038
1.9039980644979395 -1.5274482888114203 -0.7514050489688697 2.3509886e-038
4.55210730850581 -3.517622419591402 -0.11477221550059791 2.3509886e-038
2.2402081894335693 -1.7896210776342762 -0.774353843390893 2.3509886e-038
9.229140825108816 -7.104133207010327 0.17366443344754479 2.3509886e-038
2.7025481071907347 -2.1500803274378595 -0.8046773018582665 2.3509886e-038
9.241598552566888 -7.086044728599231 0.5800489065595102 2.3509886e-038
3.1055064931588894 -2.4606635535453374 -0.7787235180452887 2.3509886e-038
9.07771902653076 -6.930666135959259 0.9686841514837594 2.3509886e-038
3.1797429683108254 -2.5085184656873785 -0.6503651919283912 2.3509886e-038
9.208697972023067 -7.002880908428896 1.388757046989018 2.3509886e-038
3.072491048596934 -2.4143385001439404 -0.48848311975182435 2.3509886e-038
7.942940852424071 -6.016152306131511 1.5500531566380715 2.3509886e-038
1.4444477682120538 -1.1784462918483658 -0.718915639277788 2.3509886e-038
4.146629836097533 -3.253821779771102 -0.47262467017946985 2.3509886e-038
1.6418500546537405 -1.3330675027444183 -0.7320550134362018 2.3509886e-038
4.163253918359357 -3.2541150518013757 -0.28864890840776813 2.3509886e-038
1.8954146956426698 -1.5322992222564262 -0.7496420473548251 2.3509886e-038
4.5298118138008245 -3.526833366622795 -0.11319305335798191 2.3509886e-038
2.2366493048782803 -1.8005287147595423 -0.7747085097359647 2.3509886e-038
9.262964121970064 -7.181317977664177 0.1773644174422404 2.3509886e-038
2.7072017164938758 -2.169520357815853 -0.8075188379941065 2.3509886e-038
9.261300169211927 -7.15194282808225 0.5854186018233838 2.3509886e-038
9.110950054016607 -7.008151199196842 0.977594486916328 2.3509886e-038
3.170562743731022 -2.5203589273091938 -0.6494040359448001 2.3509886e-038
9.175365038084033 -7.02965887245111 1.3902276086254224 2.3509886e-038
7.907997405576082 -6.03217418412296 1.5494607721448341 2.3509886e-038
1.434551949707686 -1.179011743396408 -0.7156062538599202 2.3509886e-038
4.136305559813014 -3.27032829390251 -0.47155734958728 2.3509886e-038
1.6457266753972413 -1.3465425788961491 -0.7354639502812212 2.3509886e-038
4.142528483459585 -3.261226504840601 -0.2868118914485412 2.3509886e-038
1.8885737726079426 -1.5379700628177388 -0.7484929937932139 2.3509886e-038
4.542738838760892 -3.5622940474714913 -0.1125329748285755 2.3509886e-038
2.2423577220308943 -1.818328028084426 -0.7782135669666657 2.3509886e-038
9.29983723879231 -7.264114548753954 0.1813361760435903 2.3509886e-038
2.662874670344084 -2.1503427388645626 -0.7958146359167328 2.3509886e-038
9.277497675260499 -7.215610893958071 0.5906277727693108 2.3509886e-038
3.1861975192637813 -2.5614882756435913 -0.8015487403703678 2.3509886e-038
9.14496564332964 -7.084396913812355 0.9864263985852593 2.3509886e-038
3.1216981330260873 -2.499513136612591 -0.6402624976487548 2.3509886e-038
9.13846225416346 -7.051090685416072 1.3908640991731493 2.3509886e-038
3.122370518310595 -2.4891819239860786 -0.49734665475378326 2.3509886e-038
7.863634858378694 -6.04080042212098 1.5470230331255088 2.3509886e-038
1.430421711124552 -1.1842812045876374 -0.7151729425124731 2.3509886e-038
4.109914108847718 -3.2717057985111997 -0.46864646160686985 2.3509886e-038
1.6441671408937895 -1.3546558789089482 -0.7363008252003436 2.3509886e-038
4.12806380317937 -3.273195310919667 -0.2854061832562691 2.3509886e-038
1.880239239511825 -1.5423988376406212 -0.7467544969296231 2.3509886e-038
4.54135084991117 -3.58673164374472 -0.11150430619906226 2.3509886e-038
2.227347307220789 -1.818686974418902 -0.7744594536257305 2.3509886e-038
9.335628732372182 -7.341572061579761 0.18503266803208573 2.3509886e-038
2.7086480273751876 -2.20243441597826 -0.8109042725427797 2.3509886e-038
9.305945030340673 -7.28932655989447 0.5966816048301369 2.3509886e-038
3.1604857563613864 -2.5592660870040906 -0.796383124660375 2.3509886e-038
9.168798470030945 -7.150807995734257 0.9939835550947751 2.3509886e-038
3.1656990000861516 -2.552175907432402 -0.6501294006608087 2.3509886e-038
9.093328214636532 -7.06350118403115 1.389942227057984 2.3509886e-038
3.1477509546382083 -2.527533101064016 -0.5018650535579849 2.3509886e-038
7.819303318977035 -6.0491983947643835 1.5445851673498803 2.3509886e-038
1.4293475902814547 -1.1916648877017135 -0.7161955977551888 2.3509886e-038
4.092314434638856 -3.2811390180622473 -0.4667416137765056 2.3509886e-038
1.633607377963096 -1.3558297424010501 -0.7331912174987087 2.3509886e-038
4.120377749121109 -3.2893706806106198 -0.2844862364886902 2.3509886e-038
1.8869087459728158 -1.5586248090743489 -0.7509093511529319 2.3509886e-038
4.552997372562023 -3.6203677180704164 -0.1108327046626616 2.3509886e-038
2.228451363523846 -1.8328574405503582 -0.7763901458498244 2.3509886e-038
9.3587502186475 -7.41227406194996 0.18868957930542285 2.3509886e-038
2.703973930821155 -2.214621511713396 -0.8110003521842055 2.3509886e-038
9.350952732135044 -7.374081094689833 0.603659353894793 2.3509886e-038
3.416701810485825 -2.785796591812118 -0.8622947754510644 2.3509886e-038
9.25215723465052 -7.267024342737514 1.0083720449520843 2.3509886e-038
9.06575752647568 -7.091906582390184 1.3920314268357465 2.3509886e-038
3.159455619102004 -2.5543045599801344 -0.504188155468724 2.3509886e-038
7.785406408968672 -6.0633327143374425 1.5438916767201665 2.3509886e-038
1.4366092169591245 -1.2065207000617795 -0.7214998303106417 2.3509886e-038
4.0706224995674525 -3.2860172293237695 -0.46436346230362197 2.3509886e-038
1.6232976061393762 -1.3566477041391556 -0.7301072716318409 2.3509886e-038
4.096494371383607 -3.293732115381019 -0.28242517567635606 2.3509886e-038
1.8858688276526738 -1.5691427805136806 -0.7520946386007372 2.3509886e-038
9.400819127163889 -7.5285669904415 -0.22673732859206308 2.3509886e-038
2.216419557527047 -1.8355696730719324 -0.7736733223879861 2.3509886e-038
9.392172470926125 -7.489076591404803 0.19244542915138774 2.3509886e-038
2.696631387298021 -2.2238378452497027 -0.8102277151685997 2.3509886e-038
9.381698764381575 -7.450881737863721 0.6100104999460783 2.3509886e-038
3.411537697956657 -2.8017215741135075 -0.8624228246876409 2.3509886e-038
9.381428009131906 -7.4181348568727845 1.027667825867931 2.3509886e-038
9.019047681551312 -7.1026992788043515 1.3908767084551443 2.3509886e-038
7.753557106444557 -6.081062216679693 1.543931505010418 2.3509886e-038
1.4297434399899616 -1.209125747385752 -0.7196420256370222 2.3509886e-038
4.062283433929404 -3.3028086377071713 -0.4635123357997953 2.3509886e-038
1.6185496093445702 -1.3625769496743432 -0.7296071868301439 2.3509886e-038
4.071076791295416 -3.2967114562426563 -0.28025759999982 2.3509886e-038
1.879190832427084 -1.574419699660953 -0.7509598326057323 2.3509886e-038
9.374426611174353 -7.558298410001997 -0.22408381597553284 2.3509886e-038
2.2203892725627803 -1.8522302351830733 -0.7766292830423402 2.3509886e-038
9.422316876814339 -7.566557136989369 0.19635294218728738 2.3509886e-038
2.6828735340440715 -2.228534054844109 -0.8076051724551674 2.3509886e-038
9.41826014372905 -7.532973911821596 0.6168186411484649 2.3509886e-038
3.421921642044017 -2.829547091741095 -0.8664241890430322 2.3509886e-038
9.414965040700782 -7.497311288630749 1.0368991552584124 2.3509886e-038
3.2796235945559085 -2.700725395363106 -0.6762814980041872 2.3509886e-038
8.963354282130666 -7.108622492360529 1.388647391217812 2.3509886e-038
4.047133354494093 -3.3191968355007115 -0.6470901719031197 2.3509886e-038
7.726330236196076 -6.102314492246194 1.5449072870301324 2.3509886e-038
1.4311936928074995 -1.219223174115798 -0.7220636546148405 2.3509886e-038
4.061584536715299 -3.325895001795474 -0.4635322039625687 2.3509886e-038
1.6238767707894914 -1.3770492931782279 -0.7336652756864979 2.3509886e-038
4.058072186832376 -3.3096494085908854 -0.2789428679132776 2.3509886e-038
1.8707634557027386 -1.578775058896166 -0.7492086609155539 2.3509886e-038
9.331105719918419 -7.576950696767301 -0.22091127822937284 2.3509886e-038
2.225750393003244 -1.8701844891712671 -0.7800934677196782 2.3509886e-038
9.36341368277387 -7.572651911398381 0.19843017011715935 2.3509886e-038
2.6990074418647083 -2.2581661828623987 -0.8139961535438471 2.3509886e-038
9.420147168185881 -7.5878342418211595 0.6214205814464213 2.3509886e-038
3.4060214281193764 -2.8367293908642592 -0.8638529782248454 2.3509886e-038
9.455836496365883 -7.583034214271908 1.0470405396852565 2.3509886e-038
4.380049425609613 -3.632870633131076 -0.9044660701595937 2.3509886e-038
8.935653386812108 -7.136546944851457 1.3907601475138751 2.3509886e-038
4.058532587170703 -3.3524354470391247 -0.6495445374854526 2.3509886e-038
7.682038657834688 -6.109923040410515 1.5424765225652504 2.3509886e-038
1.4127536230848798 -1.2123237561205937 -0.7144468599716713 2.3509886e-038
4.073069540525884 -3.3591567149754153 -0.46494225701554526 2.3509886e-038
1.624809769636179 -1.38789377350287 -0.7357608875315855 2.3509886e-038
4.072805066976538 -3.3453561091008797 -0.2795287599584354 2.3509886e-038
1.8754439388813557 -1.5942392756149437 -0.7527197762211841 2.3509886e-038
9.264544987654972 -7.576407059744925 -0.21718887814134924 2.3509886e-038
2.2103707932480012 -1.8707300440964436 -0.776296302795328 2.3509886e-038
9.310779498716805 -7.583485225449193 0.20063743338566198 2.3509886e-038
2.6821848705288502 -2.2603175321009235 -0.810462042048729 2.3509886e-038
9.358168944438583 -7.591205189912092 0.6218283555159556 2.3509886e-038
3.411170862296655 -2.861497517558761 -0.8666292478643405 2.3509886e-038
9.418723108256989 -7.606522233219961 1.048606974976118 2.3509886e-038
4.379518508520839 -3.658541321211159 -0.9056365578937029 2.3509886e-038
8.904769534503998 -7.161873909557741 1.3924015924548794 2.3509886e-038
4.066700457176892 -3.3832548287865167 -0.6514894922950634 2.3509886e-038
7.645491397870048 -6.123479614161676 1.5415994974726948 2.3509886e-038
1.4169840916359875 -1.2248449064832 -0.7182948601162922 2.3509886e-038
4.065983995029356 -3.377262041776529 -0.46423200731822456 2.3509886e-038
1.6185196892265794 -1.392597069150052 -0.7345967630837826 2.3509886e-038
4.093496801458015 -3.386295270600182 -0.28051413390815644 2.3509886e-038
1.8698708084338391 -1.6010490295778088 -0.7521304911541733 2.3509886e-038
9.219715425104477 -7.593285303448482 -0.2139771408499026 2.3509886e-038
2.203835940300041 -1.8787092113627164 -0.7756052409849048 2.3509886e-038
9.273646987949341 -7.606720599817685 0.20318266422185638 2.3509886e-038
2.683211446729235 -2.2775088681894724 -0.8123265732641785 2.3509886e-038
9.314836526332256 -7.6094069156354 0.6234730783328044 2.3509886e-038
3.402691721161105 -2.874936229199009 -0.8659554154539819 2.3509886e-038
9.353733196610328 -7.607214637569085 1.0470674823753647 2.3509886e-038
4.368284408500478 -3.675348759893964 -0.9046012995432295 2.3509886e-038
8.876898421466569 -7.189576105350069 1.3945391674573226 2.3509886e-038
4.082311393395649 -3.4205476018721104 -0.6546354232272689 2.3509886e-038
7.6120180858048645 -6.139334547216147 1.541348643974925 2.3509886e-038
1.4211457046011295 -1.2374126429298047 -0.7221350054340545 2.3509886e-038
4.075632324649159 -3.4094207996491535 -0.4654318364332327 2.3509886e-038
1.6065005930594636 -1.3923177611172528 -0.7308299367781399 2.3509886e-038
4.086332618150112 -3.4044079036493793 -0.2795832640612054 2.3509886e-038
1.86427444967268 -1.6078395046384053 -0.751538021067703 2.3509886e-038
9.182576951512704 -7.616326026235759 -0.21093837075713406 2.3509886e-038
2.201671144522286 -1.8904417476371065 -0.7764612654901186 2.3509886e-038
9.221048983564478 -7.617055283344133 0.20539317204234742 2.3509886e-038
2.660450940537856 -2.2744738129281394 -0.8069917330280523 2.3509886e-038
9.283828815940783 -7.6375491207375905 0.6259546661783415 2.3509886e-038
3.3971521593756355 -2.890895377347927 -0.8660372721830587 2.3509886e-038
9.31351147950872 -7.627755113625346 1.0482965979150878 2.3509886e-038
4.3404100129410566 -3.678073650698329 -0.9001198098468364 2.3509886e-038
8.876631916494372 -7.239755580538889 1.40105979916427 2.3509886e-038
4.084057644535179 -3.4464714166758803 -0.6555657827224493 2.3509886e-038
7.5846560230678834 -6.160017545352629 1.5423499537503025 2.3509886e-038
1.4168124077744184 -1.2426389184670994 -0.7216757682112216 2.3509886e-038
4.091200818421525 -3.446824890064793 -0.46730779104587955 2.3509886e-038
1.5973547036577513 -1.3944561645454474 -0.7283644182655391 2.3509886e-038
4.092861661118388 -3.434067623591174 -0.2795833413159373 2.3509886e-038
1.8615419566849871 -1.617120266193718 -0.7521091533964597 2.3509886e-038
9.149990485518801 -7.643050345263731 -0.2079951335853677 2.3509886e-038
2.209683248671721 -1.9110289591943839 -0.780926222749188 2.3509886e-038
9.17617239048327 -7.633513743638689 0.20777738624544884 2.3509886e-038
2.6702362257460006 -2.299283659581524 -0.8115364546982875 2.3509886e-038
9.226594974180687 -7.643902220829752 0.6266725153480563 2.3509886e-038
3.390055011125662 -2.905571876074944 -0.8657300622734132 2.3509886e-038
9.271722701296195 -7.646835475714317 1.04935808892828 2.3509886e-038
4.238939716238953 -3.6178085807832927 -0.8803487649445334 2.3509886e-038
8.799421343179326 -7.227012223958316 1.3954449074041984 2.3509886e-038
4.093239072519771 -3.4788763755547594 -0.6576962702985594 2.3509886e-038
7.552654518009471 -6.176829543016764 1.5424227520393483 2.3509886e-038
1.4152610261661187 -1.2503225255082746 -0.7226436276104724 2.3509886e-038
4.106560237925228 -3.484377653465481 -0.46916000552419773 2.3509886e-038
1.6109442020814226 -1.4165326934827438 -0.7362874047846375 2.3509886e-038
4.111440204279399 -3.4741241292272846 -0.28039776841804714 2.3509886e-038
1.8530101289232155 -1.6213619364829555 -0.7503432767309091 2.3509886e-038
9.103560131146835 -7.658047431041357 -0.20473121663992921 2.3509886e-038
2.201552621156985 -1.9177374813405081 -0.7797018308514307 2.3509886e-038
9.142027190693973 -7.658737633467434 0.2104118926641183 2.3509886e-038
2.6622121703479307 -2.308868315490633 -0.8106846541066297 2.3509886e-038
9.174028453168258 -7.653789673812767 0.627701462425609 2.3509886e-038
3.382897664533716 -2.920234158687432 -0.8654150847306106 2.3509886e-038
9.234507849681888 -7.669542508759831 1.0509490931312375 2.3509886e-038
4.131951112903996 -3.5517181401548115 -0.8593800451634681 2.3509886e-038
8.766765484422821 -7.250516640230453 1.3968817705107672 2.3509886e-038
4.105259680699429 -3.5139715004291308 -0.6602915152794759 2.3509886e-038
7.5084240383458605 -6.183451537180899 1.5399994737393436 2.3509886e-038
1.405301506332696 -1.2505604129976173 -0.719321306438031 2.3509886e-038
4.114133474692036 -3.515610514113744 -0.4701226610389504 2.3509886e-038
1.6130694327912498 -1.4286929575599483 -0.7390049001071111 2.3509886e-038
4.125225761527351 -3.510469752889041 -0.2808755620784592 2.3509886e-038
1.8444721126845804 -1.6255637428416403 -0.74857599035445 2.3509886e-038
9.046453060382955 -7.663770148419042 -0.20122679101143248 2.3509886e-038
2.19194966123494 -1.9231384218295022 -0.7779589632445987 2.3509886e-038
9.101699569949524 -7.67866105801181 0.21291418403512585 2.3509886e-038
2.6659002869840815 -2.3286822195033587 -0.8134117473990867 2.3509886e-038
9.135263296919529 -7.674972541670908 0.6296783138489621 2.3509886e-038
3.372715562920714 -2.9323070500834043 -0.8643328255983309 2.3509886e-038
9.18655023566981 -7.683130534066793 1.0513238347634153 2.3509886e-038
4.097174304939567 -3.546980839049234 -0.8533981155758243 2.3509886e-038
8.726420989950036 -7.26753441067202 1.3971069272964662 2.3509886e-038
4.1231032787303015 -3.554378060112309 -0.663833231806344 2.3509886e-038
7.459677077588774 -6.186058580760887 1.5366343458637628 2.3509886e-038
1.3981402083123646 -1.2532363750178908 -0.7174278163098655 2.3509886e-038
4.130602863114534 -3.554734768957206 -0.47210183787687554 2.3509886e-038
1.5953655320713813 -1.423253491356753 -0.7326380973100544 2.3509886e-038
4.155493154180681 -3.5612492862504546 -0.2824644247917647 2.3509886e-038
1.8402216319062816 -1.6335346345613688 -0.748553609203338 2.3509886e-038
9.006154026456915 -7.6834602345592655 -0.19809494197933075 2.3509886e-038
2.1939232388133254 -1.9387317137870723 -0.7803349193563571 2.3509886e-038
9.052203962870458 -7.690624342505592 0.2152049121322397 2.3509886e-038
2.6607027716515836 -2.3408267688989244 -0.8134420803189941 2.3509886e-038
9.094934909123833 -7.6946867961837295 0.6315567566615581 2.3509886e-038
3.363969658432954 -2.945637662807123 -0.8636242081336112 2.3509886e-038
9.13860925157196 -7.696479599107009 1.0517004021659289 2.3509886e-038
4.066949330377353 -3.545935976971922 -0.8483555320922587 2.3509886e-038
8.693665117666905 -7.290736568331597 1.3985603766898627 2.3509886e-038
4.1032374067371595 -3.562414713168244 -0.661308457074643 2.3509886e-038
7.421612947506087 -6.197267927839709 1.5354607773223146 2.3509886e-038
1.3992996656633228 -1.2633893274366497 -0.7198141124519504 2.3509886e-038
4.118241775911253 -3.569222874299008 -0.47078539804566055 2.3509886e-038
1.5960164926157048 -1.4341453641469402 -0.7346994016059554 2.3509886e-038
4.161262370344829 -3.591403057340128 -0.2823775471126384 2.3509886e-038
1.844498111627197 -1.6491497140032196 -0.7520167939574798 2.3509886e-038
8.970378918285991 -7.706871861692369 -0.1950555919862389 2.3509886e-038
2.1756034011443597 -1.936376093022902 -0.775496919490962 2.3509886e-038
9.007289021223883 -7.706239795002343 0.21760691091411544 2.3509886e-038
2.6700435333391916 -2.3658932770414203 -0.8179354178023328 2.3509886e-038
9.056103713911632 -7.715504957621633 0.6335474027525327 2.3509886e-038
3.3640113079546747 -2.9667346076916887 -0.8651817634655223 2.3509886e-038
9.099796121930474 -7.717324899052722 1.053134048625298 2.3509886e-038
4.048658409987611 -3.5551525644001982 -0.8457987140944274 2.3509886e-038
8.66540496551518 -7.317637340491441 1.4007586145939745 2.3509886e-038
4.089342593303839 -3.575583278964874 -0.6597458241305314 2.3509886e-038
7.400184834936731 -6.222276066050729 1.5377444829999565 2.3509886e-038
1.4031717481122605 -1.2760814156868225 -0.7236201950206893 2.3509886e-038
4.0998240465667415 -3.5784275058702546 -0.46877526819736665 2.3509886e-038
1.5853884703892511 -1.4349013504872898 -0.7315748497102319 2.3509886e-038
4.120140226393539 -3.5810192163438908 -0.2791064745797122 2.3509886e-038
1.8415790818837419 -1.6584128603851045 -0.752564477196523 2.3509886e-038
4.145157267838076 -3.58637204782113 -0.08908103316603644 2.3509886e-038
2.1745990632565446 -1.9493939178645143 -0.7768323039989289 2.3509886e-038
8.954802976590141 -7.715106336870446 0.21982582179193866 2.3509886e-038
2.6443351921554226 -2.3599013463768124 -0.8116972805776705 2.3509886e-038
9.01117284250545 -7.730944734213395 0.635117879648341 2.3509886e-038
3.356606356522178 -2.9813481973754445 -0.8648352331367175 2.3509886e-038
9.05640588656354 -7.73410894346974 1.0540454642660735 2.3509886e-038
4.02443542138635 -3.5590457075593127 -0.8420003856068292 2.3509886e-038
8.646133638067798 -7.352144378709537 1.404442356527773 2.3509886e-038
4.1752455893245575 -3.6766096579202907 -0.674301096455405 2.3509886e-038
7.363599372160179 -6.234442452263315 1.5368934727617969 2.3509886e-038
1.3931927767462213 -1.2761957515254077 -0.7202935039364318 2.3509886e-038
4.175682053842082 -3.6704268449674617 -0.4775453848820808 2.3509886e-038
1.597152341491387 -1.4559987960341956 -0.7388023524758891 2.3509886e-038
4.100183549276569 -3.5888095264706767 -0.27726994720069886 2.3509886e-038
1.8301135173842509 -1.6599618707866934 -0.7496231192643159 2.3509886e-038
4.126674400816692 -3.5954922357766383 -0.08762351048642758 2.3509886e-038
2.1534451486286392 -1.944295698558442 -0.7709691034778745 2.3509886e-038
2.6506016368132004 -2.382429507762789 -0.8152779845906379 2.3509886e-038
3.3681702046043704 -3.012971144390554 -0.869392840386519 2.3509886e-038
9.019045835349031 -7.755885023962271 1.0556687728035863 2.3509886e-038
4.012037936280366 -3.5733266493147835 -0.8406762486346127 2.3509886e-038
8.590537798901988 -7.355624467928196 1.4022382654991223 2.3509886e-038
4.177304534409938 -3.704514088466274 -0.6753358258583875 2.3509886e-038
7.331522093781816 -6.2502784812642656 1.5369906255391212 2.3509886e-038
1.3832308391782746 -1.27625452876156 -0.7169681426311565 2.3509886e-038
4.201713868016277 -3.719413512956161 -0.48061894931539206 2.3509886e-038
1.6073954770241872 -1.4759205065476766 -0.7453691196550396 2.3509886e-038
1.8243125838736516 -1.666613990188294 -0.7490030790844919 2.3509886e-038
4.11118608810407 -3.6071621725702046 -0.08622622286323683 2.3509886e-038
1.9807595932810367 -1.8012144258292162 -0.7107176734699991 2.3509886e-038
4.130588421465426 -3.6088063170688724 0.10466931163591109 2.3509886e-038
2.653854563203839 -2.402414021207587 -0.8179535389051062 2.3509886e-038
3.3430759208505774 -3.011845743419423 -0.8644965365560624 2.3509886e-038
4.164025973887594 -3.6057614213330216 0.49017988094364817 2.3509886e-038
3.9907669591530945 -3.5796452679807453 -0.8374932874491083 2.3509886e-038
7.813499486286894 -6.736717731100845 1.281674587933566 2.3509886e-038
4.1976450610361535 -3.7476067915314264 -0.6792996613357685 2.3509886e-038
7.290014013174829 -6.255731994814504 1.5347681432116618 2.3509886e-038
1.3828706448707515 -1.2851640793803172 -0.7186246223771966 2.3509886e-038
4.210255239683541 -3.7519769151411833 -0.481687234498817 2.3509886e-038
1.6011029357284887 -1.4802212358106654 -0.744198592243996 2.3509886e-038
4.205806419637355 -3.731992265517959 -0.28342413632205515 2.3509886e-038
1.832574714081394 -1.6862065877973231 -0.7541768250164866 2.3509886e-038
4.1316333330300345 -3.6505459103455675 -0.0855689792123479 2.3509886e-038
4.1096885699147085 -3.61441050382619 0.10571026617109647 2.3509886e-038
2.640128673900378 -2.4062149982151184 -0.8153212816214788 2.3509886e-038
4.1406374744150725 -3.626051193891645 0.29836286393733435 2.3509886e-038
3.3500327914505768 -3.039618209470965 -0.8678950299567185 2.3509886e-038
4.13714597465226 -3.6061535193658902 0.4896724145754514 2.3509886e-038
3.9759903407315638 -3.5904519774083132 -0.8356090235211451 2.3509886e-038
8.498844644178554 -7.375868227477756 1.4006413590075875 2.3509886e-038
4.220040024321255 -3.7942783746126585 -0.683644204963786 2.3509886e-038
7.259417684978066 -6.272536327584024 1.5351878785352575 2.3509886e-038
1.3881530342932924 -1.2989419192577056 -0.7231445051000942 2.3509886e-038
4.231321824346999 -3.797356707142983 -0.48419337742272084 2.3509886e-038
1.594540677237318 -1.4847887488764389 -0.7429984654818922 2.3509886e-038
4.198797028036074 -3.7519838611157796 -0.2824357481283755 2.3509886e-038
1.829786905262003 -1.6951373766727502 -0.7547357522696336 2.3509886e-038
4.152466476703167 -3.6933956535203185 -0.08495164394307142 2.3509886e-038
1.8163967829784993 -1.6749159474625037 -0.6545963237398966 2.3509886e-038
4.1390648506538685 -3.6656991447837575 0.10814876269927365 2.3509886e-038
2.6518468281596768 -2.434155708095242 -0.8206456747426274 2.3509886e-038
4.134060587464802 -3.6455263928325174 0.30014465018790726 2.3509886e-038
3.35157147215515 -3.0615771829156357 -0.8698277144449313 2.3509886e-038
3.9532527550240726 -3.595253032864679 -0.8321149159626475 2.3509886e-038
4.160445819836019 -3.6357264011848565 0.6890654707030599 2.3509886e-038
4.248052148717752 -3.846484518474237 -0.6889130225084349 2.3509886e-038
7.234752958922169 -6.294386732960259 1.536879275988789 2.3509886e-038
1.3836071810241468 -1.3040532447501472 -0.7226570626316202 2.3509886e-038
4.249166743026805 -3.8402567127061644 -0.48633109913861533 2.3509886e-038
1.5976340176893586 -1.498392673987844 -0.7463119738500137 2.3509886e-038
4.188731687843211 -3.7692964331880834 -0.2812371825505193 2.3509886e-038
1.8070676152958318 -1.6861166498499236 -0.7471556578331155 2.3509886e-038
4.176886266085092 -3.7411465850342895 -0.08432843897477277 2.3509886e-038
1.7949652387012829 -1.6670067767085468 -0.6483402450828228 2.3509886e-038
4.163659042776544 -3.7132380239486356 0.11050278337816322 2.3509886e-038
2.6576759013297435 -2.456916374841642 -0.8241755150126868 2.3509886e-038
4.182648246468943 -3.7140594233842674 0.30597905577086504 2.3509886e-038
3.3596936577310674 -3.090832078889148 -0.873569521787418 2.3509886e-038
4.1673481898575835 -3.683109728178093 0.4989679366544988 2.3509886e-038
3.940733018142322 -3.6092813706795 -0.8307717045712786 2.3509886e-038
4.255210474965075 -3.880202245066667 -0.690811856842655 2.3509886e-038
1.3763310173827397 -1.3065746521906014 -0.7207469166664531 2.3509886e-038
4.277080827285641 -3.8927198018520515 -0.48962166627965 2.3509886e-038
1.600652242286729 -1.5120397995113704 -0.7496167966808747 2.3509886e-038
4.207380425802403 -3.8113368894261637 -0.281985201108673 2.3509886e-038
1.7872244720258479 -1.6795761822527808 -0.7407406005723305 2.3509886e-038
4.189142701584451 -3.778397259998737 -0.08343668082349603 2.3509886e-038
1.7792615597105195 -1.664246709263538 -0.644136917148189 2.3509886e-038
4.183507727409349 -3.756982750557214 0.11276827532165401 2.3509886e-038
2.614849843571202 -2.4345685508294808 -0.8126096174767876 2.3509886e-038
4.188288366789794 -3.7436458528606638 0.30860861628897296 2.3509886e-038
3.346039845595876 -3.100155038695889 -0.8716618535351008 2.3509886e-038
4.19328086933895 -3.7317378657650657 0.5049972493325661 2.3509886e-038
3.9296155877039562 -3.624606901504663 -0.8297282984989844 2.3509886e-038
4.188709090846937 -3.7112421698330684 0.7007171544029929 2.3509886e-038
4.2657899268244615 -3.91595259515359 -0.6932378153558145 2.3509886e-038
4.182636822856026 -3.6880724113570214 0.8964243692978493 2.3509886e-038
1.362298461204591 -1.3025980911719255 -0.7152882004259122 2.3509886e-038
4.293613315931518 -3.9338979360068222 -0.49160493463076654 2.3509886e-038
1.5928863312110328 -1.5149948743905584 -0.7477888283997782 2.3509886e-038
4.250219583104238 -3.8771640832665435 -0.284313526467463 2.3509886e-038
1.7493732093505518 -1.655801823640786 -0.7268214757909357 2.3509886e-038
4.198232751167472 -3.813087205310551 -0.08246310959950809 2.3509886e-038
1.7807822493487948 -1.6769835983470407 -0.6460974935876318 2.3509886e-038
4.203763727023585 -3.800181300639765 0.11499150063437324 2.3509886e-038
2.6323966854991836 -2.4674990475739826 -0.8197181392607922 2.3509886e-038
4.200547285711599 -3.7807061956427863 0.31187689900276516 2.3509886e-038
3.3280547467878296 -3.105398930183345 -0.8686259081166177 2.3509886e-038
4.207712812209267 -3.7692304010797253 0.5095511162932111 2.3509886e-038
3.923419380097501 -3.6432350767113997 -0.8296641779990093 2.3509886e-038
4.20168889271201 -3.7471700295415955 0.7062608835755557 2.3509886e-038
4.287161829920327 -3.963355094575724 -0.6974662439752566 2.3509886e-038
4.193512265189215 -3.723125024755132 0.9028822350746997 2.3509886e-038
1.3700931695768175 -1.3190396122833767 -0.7212047913312203 2.3509886e-038
4.301907599716065 -3.969227564977448 -0.49264961099053384 2.3509886e-038
1.5903239708167438 -1.5234452936459402 -0.7485061432984736 2.3509886e-038
4.245575981942234 -3.900093680807907 -0.28345349407730214 2.3509886e-038
1.7369470979966404 -1.6552417439149134 -0.7233437703994876 2.3509886e-038
4.215178304323004 -3.8539011911191974 -0.08168222470306818 2.3509886e-038
1.7622999288448202 -1.6714429691025572 -0.6408752218377518 2.3509886e-038
4.215718981311435 -3.837552225739258 0.11710839328676381 2.3509886e-038
2.6379736716311055 -2.4903430327504124 -0.8232178880286294 2.3509886e-038
4.221475831521042 -3.8259425831189153 0.31583336615918833 2.3509886e-038
3.326365218608567 -3.124759792658838 -0.8697658630359266 2.3509886e-038
4.207970630185071 -3.7955698968949165 0.5125776229574737 2.3509886e-038
3.9049572683917475 -3.65176042566657 -0.827075487844757 2.3509886e-038
4.221204528556574 -3.7905655073526385 0.7131442721700216 2.3509886e-038
4.308255501368599 -4.010959141045721 -0.7016631437601983 2.3509886e-038
4.211552596218707 -3.7648732481723037 0.9109545018647158 2.3509886e-038
1.3681630945334973 -1.3266911194859248 -0.7221249810311445 2.3509886e-038
4.321687199457241 -4.015518294158323 -0.4950095459611598 2.3509886e-038
1.5986266139583507 -1.5424156604251562 -0.7543635589592699 2.3509886e-038
4.29068364600543 -3.9691560564574333 -0.28590258580460914 2.3509886e-038
1.7228753521604805 -1.6536026617303274 -0.7192602300837887 2.3509886e-038
4.235637234301511 -3.899666958448506 -0.08088724758546506 2.3509886e-038
1.771849424932046 -1.6925068019364673 -0.6458540711456622 2.3509886e-038
4.2186234749665745 -3.866941292527593 0.11899970937377213 2.3509886e-038
2.603842740777162 -2.4756282635509472 -0.8143244922234212 2.3509886e-038
4.239191946635542 -3.868671049199826 0.31959720684587145 2.3509886e-038
3.3340305257370817 -3.154189132604083 -0.8734534915048098 2.3509886e-038
4.233163310229065 -3.8447175646863836 0.5186910639212121 2.3509886e-038
4.273552752017134 -4.024727314662101 -0.9065970381079809 2.3509886e-038
4.231639567077612 -3.8261477929763243 0.7185564999239458 2.3509886e-038
4.3348675920666215 -4.0641919759031895 -0.7067734576642055 2.3509886e-038
4.227887430188221 -3.8054615985840217 0.9187350550686046 2.3509886e-038
1.3715499800695756 -1.339574081556867 -0.7258736124966103 2.3509886e-038
4.344108605702247 -4.064719549931418 -0.4976723487243607 2.3509886e-038
1.5959511030129114 -1.5509075843108802 -0.7550673698709449 2.3509886e-038
4.349980281214046 -4.052196013042758 -0.28927596427995006 2.3509886e-038
1.7005756911220844 -1.6438962552728342 -0.7117218609472447 2.3509886e-038
4.260229171875162 -3.9497001274576333 -0.08014465835227325 2.3509886e-038
1.7938183278081028 -1.7257290463444288 -0.6554020001144703 2.3509886e-038
4.246351285319081 -3.9194529687045776 0.12162461072974817 2.3509886e-038
2.58675502163185 -2.4768887942845903 -0.8107437356863003 2.3509886e-038
4.253721894998217 -3.9088636123183758 0.32316564120866365 2.3509886e-038
3.3216167431449843 -3.164737396332342 -0.8718945310646338 2.3509886e-038
4.259533616759043 -3.8954263210390168 0.5250187999837514 2.3509886e-038
4.358496272485467 -4.1337524612315475 -0.9261123944532015 2.3509886e-038
4.241877399657688 -3.861843543402222 0.7239914094336624 2.3509886e-038
4.346719509682297 -4.104029146358683 -0.709490604022986 2.3509886e-038
4.254230115437389 -3.8554846833925662 0.9287780598917155 2.3509886e-038
1.3588615758142641 -1.3367583382730164 -0.7211216131685434 2.3509886e-038
4.369144164603075 -4.116858729898098 -0.5006349899767101 2.3509886e-038
1.5986507292100514 -1.5647010451558616 -0.7583347893436749 2.3509886e-038
4.3577570516650335 -4.087864742634668 -0.28920673595413837 2.3509886e-038
1.6852267468286606 -1.6407306154691954 -0.7070714531964881 2.3509886e-038
4.280141890175516 -3.9958531077657184 -0.07928764121351556 2.3509886e-038
1.7947402876000123 -1.7389440855673959 -0.6572953927831524 2.3509886e-038
4.263515374393435 -3.9626702391947664 0.1239866277461602 2.3509886e-038
2.5977765731656173 -2.505139717929175 -0.8159862288857269 2.3509886e-038
4.270953075040815 -3.951914326363606 0.32698489118636154 2.3509886e-038
3.3162591931184684 -3.1820411563665516 -0.8721953071327582 2.3509886e-038
4.28267403728017 -3.943657947294806 0.5310170263270815 2.3509886e-038
4.396993453993457 -4.199738164701469 -0.9358147804348831 2.3509886e-038
4.266543029732389 -3.9110613232045695 0.7319587560516227 2.3509886e-038
4.361229324921245 -4.146735258982371 -0.7126526860141599 2.3509886e-038
4.267151560951639 -3.893747530324507 0.9359754517492629 2.3509886e-038
1.348869457407845 -1.3365002501953596 -0.717787710572299 2.3509886e-038
4.389533538743577 -4.165107166126779 -0.5030655576881948 2.3509886e-038
1.593181439399412 -1.5705549557863256 -0.7577438059390367 2.3509886e-038
4.41035960334277 -4.166160121141663 -0.29209661376093543 2.3509886e-038
1.6767609602202325 -1.6441797336713289 -0.7053016423528204 2.3509886e-038
4.286671796558666 -4.0298633597118165 -0.07816083873744861 2.3509886e-038
1.7803644083288677 -1.7373275776311359 -0.6535900486176094 2.3509886e-038
4.297949001125599 -4.022447151675729 0.12689438307970713 2.3509886e-038
2.5834430131568222 -2.509036275400932 -0.8132797943239309 2.3509886e-038
4.290858652150512 -3.9978508491137656 0.331057932732703 2.3509886e-038
3.319301566696227 -3.2075398399409254 -0.8747205801923774 2.3509886e-038
4.289465637517214 -3.9771962171111035 0.5350434717166468 2.3509886e-038
4.4251130441583815 -4.256456292626062 -0.9433457180723699 2.3509886e-038
4.292376498846512 -3.961836110298287 0.7402103994053331 2.3509886e-038
4.381233045040499 -4.195088706115957 -0.7167254230921274 2.3509886e-038
4.279858985312776 -3.932141647181578 0.9431975855584525 2.3509886e-038
1.3494905413732385 -1.3467601064860637 -0.7201085948562551 2.3509886e-038
4.396668319087094 -4.201157338290533 -0.5039769835263762 2.3509886e-038
1.5823134942672936 -1.5710511800339408 -0.7545854289907512 2.3509886e-038
4.442204634920938 -4.2255965900817 -0.29359223225289427 2.3509886e-038
1.6791957182647563 -1.6583579681442364 -0.7081290912861298 2.3509886e-038
4.314799964022981 -4.084590662045239 -0.07740303026111245 2.3509886e-038
1.754985856906008 -1.7247814330724 -0.6458260375858185 2.3509886e-038
4.305824562283278 -4.057825692858316 0.1290580383515625 2.3509886e-038
2.5746929300752974 -2.518319913018889 -0.8123330544252119 2.3509886e-038
4.313411385291733 -4.046699462469482 0.33538769327061524 2.3509886e-038
3.309534319718454 -3.2207633082583436 -0.8738832141270703 2.3509886e-038
4.306264543549172 -4.020341443789407 0.5403702257235796 2.3509886e-038
4.4244914834902485 -4.285919017431237 -0.9447738928078078 2.3509886e-038
4.3135494806349755 -4.008774756129149 0.7477402190614142 2.3509886e-038
4.40953156477657 -4.251908857889255 -0.7221707925711278 2.3509886e-038
4.303940764220025 -3.9813892813180303 0.9530118636180669 2.3509886e-038
1.3526979114831563 -1.3596952122476704 -0.7238356877112899 2.3509886e-038
4.415099253971826 -4.248362081820217 -0.5061830906275104 2.3509886e-038
1.5741430689780658 -1.574167433627376 -0.7527096544157879 2.3509886e-038
4.456380980477891 -4.2687205803288 -0.29390583270164367 2.3509886e-038
1.6788374475045085 -1.6698727637595197 -0.70979901335512 2.3509886e-038
4.331021662212516 -4.128519694170615 -0.07640410353076443 2.3509886e-038
1.7462173575928208 -1.7284054109157316 -0.6441598203966337 2.3509886e-038
4.3207596186444714 -4.100184443816272 0.13146484045174378 2.3509886e-038
2.5909321548761284 -2.5522177018092593 -0.8192936705055578 2.3509886e-038
4.334224986701726 -4.094378201114623 0.3396363625670882 2.3509886e-038
3.3137515562821322 -3.2477131195041693 -0.8767525103978626 2.3509886e-038
4.325718879365661 -4.066372122053932 0.5460914806631627 2.3509886e-038
4.44919249944641 -4.340279558382863 -0.9516324196164083 2.3509886e-038
4.324307443225276 -4.04641203624137 0.7535341352222398 2.3509886e-038
4.431790910309769 -4.303442819718182 -0.7266431855045257 2.3509886e-038
4.320510525353374 -4.024116285353286 0.9612522558446117 2.3509886e-038
1.3558321039172991 -1.3726718441073356 -0.7275541904365004 2.3509886e-038
4.443273963105091 -4.305459771278308 -0.5095066239739517 2.3509886e-038
1.5793207173234065 -1.5906917115025054 -0.7572339997112281 2.3509886e-038
4.464560634555246 -4.306446537824155 -0.2938126810970695 2.3509886e-038
1.667591626100033 -1.6705589196380422 -0.7068718604159112 2.3509886e-038
4.349874380842667 -4.175381114539007 -0.0754259713887489 2.3509886e-038
1.7607385833511053 -1.7552095438072584 -0.6511063204026049 2.3509886e-038
4.34412536206152 -4.150984869819116 0.13416745910139039 2.3509886e-038
2.5820321411109965 -2.5615296160214513 -0.818328708036739 2.3509886e-038
4.3446302258947345 -4.132614685527307 0.3431174204845695 2.3509886e-038
3.3136255237695704 -3.2705945422710365 -0.8784922319722317 2.3509886e-038
4.352135975865193 -4.119428563282847 0.5527620651247698 2.3509886e-038
4.465109914795719 -4.386553384662732 -0.9566414645242229 2.3509886e-038
4.336298306986765 -4.085530347841898 0.7596056550604415 2.3509886e-038
4.445223233047754 -4.346856510096556 -0.7296820228409961 2.3509886e-038
4.3310766566726615 -4.061595472859671 0.9682331535482898 2.3509886e-038
1.34840945563835 -1.3750010244098432 -0.7256229383659774 2.3509886e-038
4.468255014568808 -4.360020411901408 -0.5124643377508125 2.3509886e-038
1.5790826867115395 -1.60187590859446 -0.7591891025673829 2.3509886e-038
4.498324307577129 -4.36933712210637 -0.29538885251239505 2.3509886e-038
1.6563618739474852 -1.6711860835516552 -0.7039457445905266 2.3509886e-038
4.36989414415471 -4.22380998978227 -0.07444137255964794 2.3509886e-038
1.7764616765906842 -1.7835116141978167 -0.6585405850212958 2.3509886e-038
4.370074192495089 -4.204764531005488 0.13699443653355436 2.3509886e-038
2.6227962683665735 -2.6204600106084555 -0.8331452965755455 2.3509886e-038
4.363475716819485 -4.179254211002361 0.3473115508148388 2.3509886e-038
3.2882917116504196 -3.2685735916547127 -0.8735523984251541 2.3509886e-038
4.378238406063323 -4.172709065192252 0.5594683749658738 2.3509886e-038
4.475139693546459 -4.427433287900008 -0.960413479452938 2.3509886e-038
4.36390070550972 -4.139793982502847 0.7684905564061615 2.3509886e-038
4.461240994757843 -4.393202898687644 -0.733157762779709 2.3509886e-038
4.36009186301669 -4.1168067955103735 0.9794291368646335 2.3509886e-038
1.334459503004402 -1.3705883249573305 -0.7201678898006973 2.3509886e-038
4.48153698858451 -4.403632091521261 -0.514080373924649 2.3509886e-038
1.5708333870300568 -1.6049534943837143 -0.7573029227110191 2.3509886e-038
4.517423953154971 -4.418545687233726 -0.2959861489110448 2.3509886e-038
1.655901864050452 -1.682679654465345 -0.7056027432921119 2.3509886e-038
4.38389792274016 -4.26684808402074 -0.07332844462352761 2.3509886e-038
1.7090073651392168 -1.7280259678469723 -0.6351097068641556 2.3509886e-038
4.391391203021769 -4.25459937708161 0.13972104395317142 2.3509886e-038
2.396313765274206 -2.411190619538004 -0.7629526571759901 2.3509886e-038
4.383485116248703 -4.2274587751283015 0.35165230054970253 2.3509886e-038
3.324133237264153 -3.327598942703496 -0.8848876568698698 2.3509886e-038
4.389652478369728 -4.212427519817829 0.5643635752891827 2.3509886e-038
4.493341144945267 -4.4768131957609585 -0.9659651884102913 2.3509886e-038
4.385442083909078 -4.188807127719436 0.7763962284115005 2.3509886e-038
4.485452181232587 -4.448110489726871 -0.7379949593550371 2.3509886e-038
4.373037935895612 -4.157300783504561 0.9871112398077155 2.3509886e-038
1.336171336182268 -1.382241509189111 -0.7231675775996724 2.3509886e-038
4.494568158221778 -4.447391201204659 -0.5156674587121131 2.3509886e-038
1.5678658376945238 -1.613429628187022 -0.7579701554353622 2.3509886e-038
1.6500262970356405 -1.688708405207481 -0.7049638831004956 2.3509886e-038
4.404794947877162 -4.31703394760262 -0.07230422177648627 2.3509886e-038
1.6894196434471969 -1.7204005243302385 -0.6294027276167318 2.3509886e-038
4.408124437780671 -4.3004402037845875 0.1423421160981897 2.3509886e-038
4.403953391097414 -4.275090735399103 0.355944652315072 2.3509886e-038
4.406573769711329 -4.257804663539797 0.5700254222002159 2.3509886e-038
4.501486362971467 -4.516572035458852 -0.9693800575164673 2.3509886e-038
4.410985069500691 -4.24213743844246 0.7850982279482874 2.3509886e-038
4.510120493404501 -4.502444500908659 -0.7428802687025235 2.3509886e-038
4.387907184829577 -4.1985519682121275 0.9950640101427624 2.3509886e-038
1.3339299147335533 -1.3898736682580073 -0.7240487923789511 2.3509886e-038
4.516605071406795 -4.49894233498701 -0.5182831809616772 2.3509886e-038
1.554611435824434 -1.61070717975605 -0.7535588444524235 2.3509886e-038
4.5825045448426955 -4.543445586090844 -0.29892603268605694 2.3509886e-038
1.644130034765993 -1.6947163954633404 -0.7043221304043707 2.3509886e-038
4.43251372860076 -4.3744389979227645 -0.07136078091338471 2.3509886e-038
1.6769607850749708 -1.7192813072871598 -0.6262588267169051 2.3509886e-038
4.431050494824859 -4.3512853142634995 0.1450987590467837 2.3509886e-038
2.5574972243713923 -2.6091515078423315 -0.8179694627056358 2.3509886e-038
4.431972705485337 -4.332034956198136 0.36104699079843905 2.3509886e-038
2.372569428538049 -2.408795291330979 -0.6342079357381772 2.3509886e-038
4.429684259738947 -4.308145898124887 0.5763798041173833 2.3509886e-038
4.416996333246652 -4.275623910080407 0.7901862201653111 2.3509886e-038
4.533686125077173 -4.557796007858274 -0.7476439317637941 2.3509886e-038
4.4174538657112965 -4.255742187973433 1.0066853780721758 2.3509886e-038
1.3422306009423575 -1.40810423825427 -0.7305772989189112 2.3509886e-038
4.543189518553255 -4.55713549497456 -0.5214256010529255 2.3509886e-038
1.5489832277696103 -1.616406217127619 -0.7529457191168101 2.3509886e-038
4.575997959046342 -4.567090230233019 -0.2978451655372425 2.3509886e-038
1.641168376243297 -1.703166049936561 -0.7048520380237304 2.3509886e-038
4.46065705129203 -4.431311699303116 -0.0704620817591558 2.3509886e-038
1.6615374307195658 -1.7156164435290489 -0.6220765400677137 2.3509886e-038
4.448660108589033 -4.3988794986351225 0.14782966356838567 2.3509886e-038
2.5443163577578467 -2.6141506542984687 -0.8156689452914032 2.3509886e-038
4.451872089514288 -4.380052303086294 0.3654042924264842 2.3509886e-038
4.450336668584353 -4.358043912099097 0.582662114066802 2.3509886e-038
2.3802552861468245 -2.42120167379204 -0.5143199604731264 2.3509886e-038
4.446240564803994 -4.333473920554539 0.7997188219378102 2.3509886e-038
4.440314808101624 -4.305562552047587 1.016642918777591 2.3509886e-038
1.3295839741906954 -1.4048989692332954 -0.7258245403337635 2.3509886e-038
1.539697018068834 -1.617682188869365 -0.7504495513300651 2.3509886e-038
1.6166701557368999 -1.6897528136642292 -0.6962142410102321 2.3509886e-038
4.484866234422196 -4.486368055838342 -0.06939733676054005 2.3509886e-038
1.655851180532654 -1.7213291561896007 -0.6214564020256099 2.3509886e-038
4.471015570064699 -4.450104040529609 0.15065149949949008 2.3509886e-038
2.5410869726678804 -2.62845472285103 -0.8164685113376398 2.3509886e-038
4.4693162434578175 -4.427606796833786 0.3697588498043467 2.3509886e-038
3.269885403842064 -3.3658026988731153 -0.877668122521563 2.3509886e-038
4.479966662555006 -4.415756731278752 0.590015568319205 2.3509886e-038
2.3750132277277567 -2.4320598989763864 -0.5140447710289946 2.3509886e-038
4.46031705884864 -4.37553499327084 0.8063925462921366 2.3509886e-038
1.3210691227071898 -1.4054701540126795 -0.7232088467616433 2.3509886e-038
