VERSION 0.7
FIELDS x y z rgb
SIZE 4 4 4 4
TYPE F F F F
COUNT 1 1 1 1
WIDTH 640
HEIGHT 1
VIEWPOINT 0 0 0 1 0 0 0
POINTS 640
DATA ascii
-0.40821378339330694 0.4497647760774587 0.1340043778381704 2.3509886e-038
-0.4046574004064321 0.4488191534509894 0.15553061031684912 2.3509886e-038
-0.42419379840962684 0.4521425215176814 0.0051734465040147795 2.3509886e-038
-0.40697584192191416 0.4544534666637182 0.17982965341089535 2.3509886e-038
-0.4414681358608226 0.47352924908445443 0.02792725959472784 2.3509886e-038
-0.4010187743954824 0.45090092091612755 0.20091886164254097 2.3509886e-038
-0.422865030651703 0.4562933713722572 0.04855490829173288 2.3509886e-038
-0.38844821426689624 0.43969950771146477 0.218285168833441 2.3509886e-038
-0.4153517616929947 0.4523161497367343 0.0694053213827096 2.3509886e-038
-0.4213599596552034 0.4618170248262132 0.09276205547286001 2.3509886e-038
-0.42281135347241366 0.4662616092058199 0.1158910127885153 2.3509886e-038
-0.40395339157654 0.448404638077634 0.13296242877626024 2.3509886e-038
-0.40688893007852567 0.4546885378399981 0.15684324013640066 2.3509886e-038
-0.4239882805651469 0.45507452145544447 0.00501668658343607 2.3509886e-038
-0.4028402255882599 0.45307019424704215 0.1785249581047646 2.3509886e-038
-0.4262490826605867 0.4604048732973983 0.02688968123584512 2.3509886e-038
-0.39693169995046546 0.4495285844600907 0.19948274869841476 2.3509886e-038
-0.42795007879925645 0.46518745563089836 0.049146578427565896 2.3509886e-038
-0.39424970224183087 0.4496655999947126 0.2222882397398397 2.3509886e-038
-0.41645714052961713 0.45671902016144467 0.06967999637812737 2.3509886e-038
-0.4224096061548611 0.4662459958419225 0.0931708171660992 2.3509886e-038
-0.41197425001065 0.4575406764519851 0.11318075733890448 2.3509886e-038
-0.3893684395671605 0.43529978936686436 0.12849267691217914 2.3509886e-038
-0.411736729984228 0.4634032992364878 0.15915514045925927 2.3509886e-038
-0.42648402012686065 0.46094634837248094 0.00488923864022623 2.3509886e-038
-0.40379867610538633 0.4574164927146638 0.1794793479772684 2.3509886e-038
-0.42735522803993153 0.46483198675008075 0.026883482827657883 2.3509886e-038
-0.3878547987223338 0.44242352584165795 0.1955251808776577 2.3509886e-038
-0.4290235068433437 0.4696324186153098 0.04927720569418946 2.3509886e-038
-0.3963709265979065 0.4553666855021091 0.22420370689709046 2.3509886e-038
-0.4188709759380939 0.46260841900766797 0.07017518380125679 2.3509886e-038
-0.40226210071594953 0.44715369906580366 0.08889778164727485 2.3509886e-038
-0.42349220322843306 0.47367847357063214 0.11661526770923342 2.3509886e-038
-0.39044591231919457 0.43962221029140824 0.12918359352133835 2.3509886e-038
-0.3998677011562414 0.4532727119607476 0.15500230940041904 2.3509886e-038
-0.4248846554376191 0.4624228158645529 0.004712668042094803 2.3509886e-038
-0.4009375943678007 0.4574465294795228 0.17873925354624476 2.3509886e-038
-0.42035216465842073 0.4604180515525772 0.026367247658219378 2.3509886e-038
-0.3788328319228636 0.43525782844193395 0.19157354226626144 2.3509886e-038
-0.4206927962958427 0.4637521199883641 0.04832747787714489 2.3509886e-038
-0.3923273465478406 0.4539959109915097 0.2226364874224317 2.3509886e-038
-0.42124905864082374 0.46852056638011064 0.07066626848781046 2.3509886e-038
-0.4046605176446938 0.45300932144132877 0.0896014775223162 2.3509886e-038
-0.4009466179611511 0.4516537071418052 0.11066547043354377 2.3509886e-038
-0.39149818752068155 0.44395785842332175 0.12987156855892049 2.3509886e-038
-0.3957339652637969 0.45180685400053705 0.1538351711535636 2.3509886e-038
-0.41788813339342723 0.4579842143683827 0.0044776101732791895 2.3509886e-038
-0.4031205469339393 0.4632524501226753 0.18025273759206728 2.3509886e-038
-0.42412220397198097 0.4678041454974652 0.026526366803200228 2.3509886e-038
-0.3847597465243662 0.44526790041331316 0.19518329072620516 2.3509886e-038
-0.4177468749782731 0.4637456858131886 0.047996064293232055 2.3509886e-038
-0.3821933312343055 0.44548499580461837 0.21759479737588705 2.3509886e-038
-0.40903023833897034 0.4581458424078416 0.06870733009318916 2.3509886e-038
-0.4083361936139253 0.46036784852277285 0.09059236800818794 2.3509886e-038
-0.40067486351475246 0.4545632178436906 0.11085148390050728 2.3509886e-038
-0.3860903264681036 0.4409575314244967 0.1284163432233844 2.3509886e-038
-0.3941585274829631 0.4532410121709416 0.15366093529690245 2.3509886e-038
-0.41092755837134254 0.4535025942819525 0.004246367916064711 2.3509886e-038
-0.4002493437852054 0.4632711725810782 0.17951121232220607 2.3509886e-038
-0.42784606160750505 0.4752219768876671 0.026680222158008124 2.3509886e-038
-0.379496361204074 0.44235917144962705 0.1931240953741537 2.3509886e-038
-0.41879461508866855 0.4681829366511492 0.0481233787905077 2.3509886e-038
-0.3879329606112154 0.4554664941780555 0.22159040638878563 2.3509886e-038
-0.4048001537603617 0.4566146437703601 0.0680874909409266 2.3509886e-038
-0.40804226660656456 0.4633033016540513 0.09070582752947212 2.3509886e-038
-0.4055709458413877 0.4633983961896554 0.11247301718341679 2.3509886e-038
-0.39224489980021504 0.4511944384013212 0.1308112035310446 2.3509886e-038
-0.3913118338611872 0.45320296030164353 0.1529908971139695 2.3509886e-038
-0.4120296611801191 0.45789824206529806 0.004098818418628233 2.3509886e-038
-0.3886357112032179 0.4530773446927033 0.17483491280181018 2.3509886e-038
-0.4235324213949486 0.47373292686959273 0.02633196700415193 2.3509886e-038
-0.39149396313313745 0.4596540592417197 0.1998667146209716 2.3509886e-038
-0.41849222589123747 0.4711423563047676 0.04809548370562913 2.3509886e-038
-0.37907469988702014 0.4483090772577002 0.21724966591942202 2.3509886e-038
-0.4071528413397483 0.4625192418118725 0.06857530081746724 2.3509886e-038
-0.40643025036601255 0.4647528841432307 0.0905272750811281 2.3509886e-038
-0.41041055176075947 0.4722744478302242 0.11408814455260671 2.3509886e-038
-0.3830126218127239 0.44373187381476986 0.1280755486730778 2.3509886e-038
-0.40360558890302045 0.47080539805137084 0.15825587724599433 2.3509886e-038
-0.4144388021629269 0.4637982586515048 0.003961024713168192 2.3509886e-038
-0.39203305880612294 0.46034155260136156 0.1769061983667684 2.3509886e-038
-0.4112741341619841 0.4632534133461561 0.02549187698405775 2.3509886e-038
-0.3788542766679474 0.44804355289863246 0.1940373069556281 2.3509886e-038
-0.41817453822628625 0.47410523811575495 0.04806573697537214 2.3509886e-038
-0.37871416182930445 0.4511496714456358 0.21776959704406357 2.3509886e-038
-0.41077751326137324 0.46994268892740565 0.0692795789190015 2.3509886e-038
-0.3918385550989535 0.4512545469830964 0.08745225917042951 2.3509886e-038
-0.40233906376637374 0.46629346006931766 0.11211487351921054 2.3509886e-038
-0.3763804190878748 0.43917611776375154 0.1261987470799246 2.3509886e-038
-0.38563422791875746 0.45308264126273323 0.15165209818336364 2.3509886e-038
-0.4128297200058665 0.46523253967446054 0.0037826051257820875 2.3509886e-038
-0.39042693023925923 0.46177280349796707 0.17672810025238161 2.3509886e-038
-0.4189162952281882 0.47517898022585114 0.025885120886416764 2.3509886e-038
-0.37362687128145056 0.44507313202283305 0.19198165174556325 2.3509886e-038
-0.4125854044376467 0.4710707897969081 0.047429903417105325 2.3509886e-038
-0.37953991970967826 0.45543491620564874 0.21898071644520867 2.3509886e-038
-0.4092255900734276 0.4713200246080461 0.069107406309777 2.3509886e-038
-0.40198008651867606 0.4660645644718464 0.08988805668881018 2.3509886e-038
-0.3995163991276124 0.466166506489374 0.11158611074740613 2.3509886e-038
-0.38506015991070985 0.45236830434029673 0.1294438920424486 2.3509886e-038
-0.3778774746597624 0.44701031296330523 0.14901839577109718 2.3509886e-038
-0.40997403283536804 0.46508967183660355 0.0036008475611186697 2.3509886e-038
-0.39260020145824814 0.46753795403365495 0.17823974627443723 2.3509886e-038
-0.41471611923858637 0.47355867900267856 0.02554898257170498 2.3509886e-038
-0.3660697886909358 0.43908487811912167 0.1886835349504637 2.3509886e-038
-0.4044857688110519 0.46492213030832397 0.04650485219848074 2.3509886e-038
-0.37085046998142357 0.4480979534182578 0.21465823808576334 2.3509886e-038
-0.40239478984385835 0.4667419175839935 0.06804743406443925 2.3509886e-038
-0.4003586227522019 0.4674927776324395 0.08970800467915797 2.3509886e-038
-0.39406763639747133 0.46309938559549835 0.11033468640041569 2.3509886e-038
-0.38726845174636704 0.45823277107212645 0.13054453197470586 2.3509886e-038
-0.39501032900052624 0.47065113207256326 0.15623827445372734 2.3509886e-038
-0.40309137849760546 0.46048894691659215 0.0033774920774038153 2.3509886e-038
-0.3860510460263171 0.4630727021168776 0.17581882065494042 2.3509886e-038
-0.40913807164341165 0.47047932682918503 0.02512478975694519 2.3509886e-038
-0.3778586217632299 0.4565268607225015 0.195402413674166 2.3509886e-038
-0.41199707337715336 0.4769046678071713 0.04737486940769479 2.3509886e-038
-0.3645198894458711 0.44367257717216635 0.21171679723963133 2.3509886e-038
-0.3904296974723952 0.45608045628395044 0.06611571164587719 2.3509886e-038
-0.4000960056888293 0.4703517771939104 0.08982419939388957 2.3509886e-038
-0.4051562716705611 0.4795415607455926 0.11372040476400291 2.3509886e-038
-0.3819033202275184 0.4551361106629478 0.1290931533760003 2.3509886e-038
-0.3822810681402487 0.4586113212810465 0.15163415227267182 2.3509886e-038
-0.3975576224726763 0.4573554148365872 0.00316853978551377 2.3509886e-038
-0.37708966729998566 0.45560730566634466 0.17228308506511392 2.3509886e-038
-0.41272910099791893 0.47795443309485236 0.02526298934405707 2.3509886e-038
-0.3690289470260256 0.4491109148142945 0.19147090067216577 2.3509886e-038
-0.40392925662803303 0.47070941711048025 0.046453068841488386 2.3509886e-038
-0.3654201858887355 0.4478643798618781 0.2129357720196296 2.3509886e-038
-0.39407483828597767 0.4634478437113876 0.0668216847233417 2.3509886e-038
-0.39079709240176086 0.46270075773142716 0.08791832459440524 2.3509886e-038
-0.3908383084918571 0.465912913113632 0.10997562339307293 2.3509886e-038
-0.37539193602720844 0.45043716460778055 0.12722921742621476 2.3509886e-038
-0.39675009297659186 0.47941335693702836 0.1578489212607449 2.3509886e-038
-0.40642564921521507 0.47084264803952625 0.0030710127466513984 2.3509886e-038
-0.37923804503115455 0.4613665589202953 0.17379154468821367 2.3509886e-038
-0.4007440744038837 0.4671855335398505 0.024452504179268416 2.3509886e-038
-0.37234392892494433 0.4562886338239609 0.19380588716916003 2.3509886e-038
-0.4074682409624986 0.47819797033857336 0.04686625074276407 2.3509886e-038
-0.36976214093804266 0.45651163113799226 0.2162155708944427 2.3509886e-038
-0.39759398049169 0.47091503727933126 0.06751349605336006 2.3509886e-038
-0.38664377136151673 0.4610561087025298 0.08716568517596271 2.3509886e-038
-0.4018962739721977 0.4823624057270956 0.11335763724410897 2.3509886e-038
-0.3738227873308925 0.451789443047294 0.12705452166614034 2.3509886e-038
-0.3803095362443595 0.4628767336940763 0.1517689087143133 2.3509886e-038
-0.4060938551793132 0.47376732779866126 0.0028984358785186515 2.3509886e-038
-0.3836996744338162 0.47019185089557797 0.1764035163110802 2.3509886e-038
-0.41208072943999835 0.48379486406345734 0.025059960183053828 2.3509886e-038
-0.35879131439024226 0.44289577626762333 0.18738243197529025 2.3509886e-038
-0.4019421855262584 0.47505865934940483 0.04623667449448481 2.3509886e-038
-0.3693435066380625 0.45934551625038217 0.21672817264943084 2.3509886e-038
-0.39851152263829026 0.47536559030780673 0.0677655263144783 2.3509886e-038
-0.38757306993463747 0.4654723131995813 0.08755928480521226 2.3509886e-038
-0.39009834663353604 0.4717372962421972 0.11032328780568926 2.3509886e-038
-0.3734898131934242 0.45464664421302814 0.12730209293892872 2.3509886e-038
-0.3713425966718099 0.45524193153055426 0.14864561691664774 2.3509886e-038
-0.40056144638377256 0.4706032071518852 0.002689183335953492 2.3509886e-038
-0.3843949418591749 0.47464906471428503 0.17732684722266917 2.3509886e-038
-0.4103171613024431 0.4853015923987242 0.02486342066112 2.3509886e-038
-0.36431107736502644 0.4531681187640614 0.19094552222000188 2.3509886e-038
-0.39900892844389524 0.47494071099381013 0.04590514449555613 2.3509886e-038
-0.3642253839712989 0.45631352259166563 0.21448038193175306 2.3509886e-038
-0.38914600710072333 0.46767231249542746 0.06627259899194812 2.3509886e-038
-0.3909169083936824 0.47302176573415966 0.08851178543062896 2.3509886e-038
-0.38221098057703295 0.4655264822257845 0.10836943581523839 2.3509886e-038
-0.3841798208340197 0.4712109581038845 0.13133977487578177 2.3509886e-038
-0.3684562366220394 0.4551494551768801 0.14796981820560323 2.3509886e-038
-0.3924737659187405 0.4643515324380575 0.0024665428431038666 2.3509886e-038
-0.3743140845790268 0.4655748523513329 0.1732428194915478 2.3509886e-038
-0.4034925190698078 0.48060802666373814 0.024365135913501444 2.3509886e-038
-0.3615437801318934 0.4530240315884413 0.19014563459753814 2.3509886e-038
-0.3972764830070042 0.47640942146231335 0.0457119000332865 2.3509886e-038
-0.3567226857247589 0.4503730849990895 0.21084843336346115 2.3509886e-038
-0.3849875832635599 0.4659801800003033 0.06565923318739772 2.3509886e-038
-0.390527162261713 0.47594140305624044 0.08861308817673744 2.3509886e-038
-0.37934677546143936 0.4653682816751273 0.10783503102833883 2.3509886e-038
-0.37146820174364104 0.45891893959490315 0.12736105629975267 2.3509886e-038
-0.38144726025116704 0.4746251044028166 0.15366527679345993 2.3509886e-038
-0.38957720417769354 0.4641771617438343 0.002279222224333126 2.3509886e-038
-0.375086840941093 0.4699459497694478 0.1741744839768367 2.3509886e-038
-0.4031038930568764 0.4835483063081739 0.02425590706274022 2.3509886e-038
-0.3658634169949898 0.4618038705191274 0.1930833455522057 2.3509886e-038
-0.3892611435944651 0.4701203932752413 0.04479520612529618 2.3509886e-038
-0.35398870592464265 0.45022058160535416 0.20998429235044885 2.3509886e-038
-0.3858899391915031 0.47041363880058107 0.06590911387865295 2.3509886e-038
-0.3827013374239725 0.46958708781527125 0.08701563822637719 2.3509886e-038
-0.3913498193247831 0.4835586248541723 0.11153671323788447 2.3509886e-038
-0.3600718519477599 0.448065287921379 0.12381342737322265 2.3509886e-038
-0.37745615000599436 0.47290907325749243 0.15251208645095155 2.3509886e-038
-0.3905278562654212 0.4685973732128955 0.0021132038918072332 2.3509886e-038
-0.3674820394244007 0.4637881907703981 0.171211952644295 2.3509886e-038
-0.39250481643895396 0.47417527804286863 0.02353353408185551 2.3509886e-038
-0.35837640972718743 0.45568124852425035 0.18979190793324474 2.3509886e-038
-0.39657909543831993 0.48220107949041857 0.04564265711915999 2.3509886e-038
-0.3605848257057529 0.46183042888764547 0.21463286169110307 2.3509886e-038
-0.3868487438656909 0.4747907930304918 0.06616516385203451 2.3509886e-038
-0.37982260638464055 0.469408173440159 0.08654929741398557 2.3509886e-038
-0.37610237098477206 0.4680776277655526 0.1074725117117202 2.3509886e-038
-0.3622484056804346 0.4538830042633884 0.12490941705925493 2.3509886e-038
-0.3637627437296018 0.4590779696660361 0.14744551986948107 2.3509886e-038
-0.3927277417249537 0.47457053034282215 0.0019504833028116605 2.3509886e-038
-0.3730741042755471 0.47412455143628207 0.1743720814480022 2.3509886e-038
-0.39094125691205445 0.4754737828503643 0.02335871778010064 2.3509886e-038
-0.3556955075367079 0.4554374762389305 0.18900127101437936 2.3509886e-038
-0.39364250528862 0.48204627833156843 0.04531015519640737 2.3509886e-038
-0.35897169264103446 0.4631689132923762 0.21445248468115197 2.3509886e-038
-0.39020093076053 0.48234020290133467 0.06683745219468432 2.3509886e-038
-0.37694993427363255 0.46921465992522826 0.08608348887096315 2.3509886e-038
-0.37946699108537124 0.4755121425559065 0.1087065953537078 2.3509886e-038
-0.36673937381620836 0.4628518514907385 0.12683242875828535 2.3509886e-038
-0.36096345647976963 0.45887414067920584 0.14677886413808 2.3509886e-038
-0.38481390709017804 0.468135920746214 0.001746698641106506 2.3509886e-038
-0.37378615781915586 0.4785175390023657 0.17529652620532143 2.3509886e-038
-0.3994023214810485 0.489220243980504 0.023775974186275806 2.3509886e-038
-0.3459521326277598 0.4462309092119523 0.1844754889549175 2.3509886e-038
-0.38066129184745046 0.4694813400891776 0.04382116304006627 2.3509886e-038
-0.353917855142618 0.46003542595182245 0.21221115158669057 2.3509886e-038
-0.38105283402200985 0.4744152170064547 0.06536805772472497 2.3509886e-038
-0.377787120700563 0.47365024251735 0.08646592311936241 2.3509886e-038
-0.3704757931119147 0.46761066765545944 0.10641409021032441 2.3509886e-038
-0.36754536387319103 0.46724792092469625 0.12749068845188954 2.3509886e-038
-0.3545884851833031 0.45406934448361896 0.1446516013136574 2.3509886e-038
-0.37686679726439964 0.4617196804165837 0.0015390455103172981 2.3509886e-038
-0.36151893450594574 0.46621720258032795 0.17012234305795038 2.3509886e-038
-0.3977041475418833 0.4906109565577942 0.023585809924350644 2.3509886e-038
-0.3594691456968422 0.4670936593763201 0.19236811229307083 2.3509886e-038
-0.3840343528681335 0.4770311614844927 0.044214631570188345 2.3509886e-038
-0.34889051187136433 0.45687084880102413 0.2099726428525746 2.3509886e-038
-0.3719646526128467 0.4664316152225715 0.06390522685857986 2.3509886e-038
-0.37736898265099833 0.4765452836883566 0.08656331677694895 2.3509886e-038
-0.37006559509759396 0.4704845922939642 0.10658234040855963 2.3509886e-038
-0.35989966038247 0.46086614238388496 0.12521445766176312 2.3509886e-038
-0.3708345398332402 0.4783548979328146 0.15177093808540446 2.3509886e-038
-0.3790431304229872 0.467684193578783 0.0013732637016248828 2.3509886e-038
-0.35754839513221326 0.4644938852962041 0.16883302518966065 2.3509886e-038
-0.39474815971278915 0.4904386518802363 0.023320938500016916 2.3509886e-038
-0.35206735157564106 0.46086363647477524 0.18908564625697266 2.3509886e-038
-0.3861140445650605 0.4830521509077063 0.04445917992997968 2.3509886e-038
-0.3518346699889824 0.46415598711962125 0.21253617852771034 2.3509886e-038
-0.374046896559808 0.4724221462450181 0.0643606964093097 2.3509886e-038
-0.3720401277471316 0.4732168816335722 0.08553339792541499 2.3509886e-038
-0.374487856311831 0.4795693342682039 0.10814871351652366 2.3509886e-038
-0.35589795881418906 0.45907242023869455 0.12419811297043024 2.3509886e-038
-0.36206809382124683 0.4704766977584139 0.1486689036677647 2.3509886e-038
-0.37491319001412915 0.4658784751454599 0.0011834244753734235 2.3509886e-038
-0.35942933327606535 0.47038395598167004 0.17031021329355966 2.3509886e-038
-0.3843115661872998 0.48088370302501626 0.022616019381355882 2.3509886e-038
-0.35160797488395185 0.46367699854199146 0.18952461239200363 2.3509886e-038
-0.3856764238823476 0.4859683528299658 0.04441380351413732 2.3509886e-038
-0.34343528784076627 0.4564543683091783 0.20824426891788483 2.3509886e-038
-0.3760921699725735 0.4784329900887408 0.06481187570032348 2.3509886e-038
-0.363164657450768 0.4651088020205965 0.08367326394391651 2.3509886e-038
-0.38126461388593325 0.49180446186954196 0.1104071523167626 2.3509886e-038
-0.3507203932077636 0.45570574397744495 0.12276596458891215 2.3509886e-038
-0.35461983046667667 0.4640184771658876 0.14606772464834236 2.3509886e-038
-0.38078816730246556 0.4765494040843301 0.001022169891704186 2.3509886e-038
-0.36359721166664805 0.479356779545967 0.17288787864835936 2.3509886e-038
-0.3751883548288979 0.472827786783869 0.021991745952856023 2.3509886e-038
-0.3409186085349182 0.45275444150638816 0.1844016763470228 2.3509886e-038
-0.3778982531547055 0.4794191104357462 0.04352266697666493 2.3509886e-038
-0.3475447183169214 0.4651944931050158 0.21149656424544083 2.3509886e-038
-0.3745126230529995 0.4796944202063841 0.0646345079447913 2.3509886e-038
-0.3689091591804715 0.4757247945548049 0.08518193460796798 2.3509886e-038
-0.36642343530803584 0.47593650988012226 0.10638762255636594 2.3509886e-038
-0.35396401255974014 0.4631239378189591 0.12426462526133505 2.3509886e-038
-0.35894897796190495 0.4729706808602522 0.14831870356131444 2.3509886e-038
-0.37424469689153983 0.47153400876207496 8.347159644975441E-4 2.3509886e-038
-0.3608525866438065 0.4790856674198307 0.17215770310213152 2.3509886e-038
-0.3835269197329066 0.4866267174343057 0.022394558634482038 2.3509886e-038
-0.34169571598798937 0.45699577767593547 0.1854695508821642 2.3509886e-038
-0.37385696359632314 0.4775360737185716 0.043061687556027954 2.3509886e-038
-0.3415224497951763 0.46038420795617013 0.20858760954621314 2.3509886e-038
-0.3729289461494256 0.4809505422400512 0.06445654585429207 2.3509886e-038
-0.3684628219522854 0.47860547593286634 0.08527560597375153 2.3509886e-038
-0.3660463255712318 0.47874772436600715 0.10655903770529176 2.3509886e-038
-0.35598002007944163 0.4690115255668076 0.1253417019951 2.3509886e-038
-0.3491271540491494 0.46342559460634875 0.14474476233127428 2.3509886e-038
-0.3664197426360861 0.46497338307669583 6.400766785693221E-4 2.3509886e-038
-0.35350818402129713 0.4726431351947799 0.1692232465214633 2.3509886e-038
-0.38685054575818156 0.4941905918443758 0.02250083820820392 2.3509886e-038
-0.3389672935883114 0.45672888596619965 0.18467265134197158 2.3509886e-038
-0.37587143877680307 0.48357208283369135 0.04329834947269935 2.3509886e-038
-0.33768574687174785 0.4586269294940806 0.20704026284694427 2.3509886e-038
-0.36397789253290846 0.4728108176627185 0.0630084058881469 2.3509886e-038
-0.36559582829404325 0.4783419794471865 0.08480944206248395 2.3509886e-038
-0.3559632437594083 0.4691407005373542 0.10392914745515144 2.3509886e-038
-0.3472832867876132 0.46092099081006244 0.12266313732388254 2.3509886e-038
-0.3661082564061682 0.4895608962391553 0.1522989365684827 2.3509886e-038
-0.3660394517445841 0.46781514496633536 4.6020464911136066E-4 2.3509886e-038
-0.3517774244672081 0.47400210174292523 0.16902854671972495 2.3509886e-038
-0.3801444597495705 0.4892908776885693 0.022014178675382107 2.3509886e-038
-0.3451901952022446 0.46876548064991663 0.18880340022638326 2.3509886e-038
-0.3754108800565764 0.48646910703647145 0.04324982937247002 2.3509886e-038
-0.3383025789628062 0.462918439060457 0.20822548547696146 2.3509886e-038
-0.36949755801152895 0.4836429612288522 0.06407050764393782 2.3509886e-038
-0.36145526104098613 0.47655081907110797 0.084056170134493 2.3509886e-038
-0.367366293174089 0.48772169811372434 0.10756210582015119 2.3509886e-038
-0.34091183493953464 0.4559686874008051 0.12081276590240594 2.3509886e-038
-0.3550643844618757 0.4784891563812803 0.1482344737508565 2.3509886e-038
-0.3644169661869716 0.4690802720593111 2.7755111986547953E-4 2.3509886e-038
-0.3535460105125143 0.4799349296546642 0.17049239115078108 2.3509886e-038
-0.37356310180125163 0.48428360487886424 0.02154140050802045 2.3509886e-038
-0.3356954443411613 0.4592869934593643 0.184304423057297 2.3509886e-038
-0.37606306622928687 0.491018486226457 0.04332963639652331 2.3509886e-038
-0.3343979255513344 0.461195639795923 0.20667020839483624 2.3509886e-038
-0.3678167661544326 0.4849475102300098 0.06388119852867011 2.3509886e-038
-0.35503255757624913 0.471507006618843 0.08275864999866317 2.3509886e-038
-0.3621303077421517 0.4843048606135735 0.10633184642208032 2.3509886e-038
-0.3439883543315463 0.4634832768339584 0.12229210072547772 2.3509886e-038
-0.35569935472728975 0.48290552189681707 0.14901111488182 2.3509886e-038
-0.3676761425878723 0.47667426398296764 9.553190663701833E-5 2.3509886e-038
-0.35073747774691955 0.4796777112981063 0.16975449085542993 2.3509886e-038
-0.3706670925274337 0.48399686103322426 0.021282258275013437 2.3509886e-038
-0.3340928156542403 0.46052631150526535 0.18412384827670814 2.3509886e-038
-0.36590458853089003 0.48121940599157376 0.04216342063057286 2.3509886e-038
-0.3371808520691927 0.46854495782372374 0.20921467451203946 2.3509886e-038
-0.3661315447465394 0.4862459702948423 0.06369124596286144 2.3509886e-038
-0.3570334888972114 0.4774653367863173 0.08341445797090152 2.3509886e-038
-0.36514145617046684 0.4919290348867388 0.10752483330986323 2.3509886e-038
-0.34121383722424015 0.46314922693323934 0.1216962180793153 2.3509886e-038
-0.3403494817782645 0.4653328276991816 0.1430510638355504 2.3509886e-038
-0.3635908789254261 0.4747691646169294 -9.02570652272991E-5 2.3509886e-038
-0.34793524396961434 0.47940619593847766 0.16901715727870897 2.3509886e-038
-0.3786658002806538 0.4980157141015948 0.021646127104071357 2.3509886e-038
-0.3280379700366889 0.455582599603012 0.18148188381161579 2.3509886e-038
-0.3595076043835569 0.4760691966246352 0.0414301609230608 2.3509886e-038
-0.33453349112377295 0.4682073843132318 0.20835853157147766 2.3509886e-038
-0.3645263934885507 0.4874741178060522 0.06351018787341425 2.3509886e-038
-0.36127638431570885 0.4866873955835046 0.08460967700890386 2.3509886e-038
-0.3494066230742181 0.4742054312693644 0.10319030213727229 2.3509886e-038
-0.3431480704210707 0.4690570892138784 0.12276342913052155 2.3509886e-038
-0.3478520244005885 0.4791380497451697 0.14671641900213006 2.3509886e-038
-0.3583128136573632 0.47124930155277 -2.7326120188394393E-4 2.3509886e-038
-0.34747193973010454 0.48217799060999045 0.16938617034137216 2.3509886e-038
-0.3758194069718676 0.4976726709519895 0.021392303248922374 2.3509886e-038
-0.336489835049676 0.47066802456383705 0.18684303508403183 2.3509886e-038
-0.3674290223418162 0.4901006923049926 0.04234710853698453 2.3509886e-038
-0.3274592559061067 0.46178213535895624 0.2047725160340177 2.3509886e-038
-0.3557181113493385 0.47917749533253373 0.06207742916079788 2.3509886e-038
-0.3596687232889652 0.4879080891414743 0.08442819359263279 2.3509886e-038
-0.3524925960802202 0.48175449610699256 0.10439145062678529 2.3509886e-038
-0.34036495471395256 0.4687121500878736 0.12216630403447665 2.3509886e-038
-0.3417250600398672 0.4740404925548957 0.14461558310803474 2.3509886e-038
-0.3543497143264782 0.46923348345543514 -4.4553194541546715E-4 2.3509886e-038
-0.3357191700132304 0.46937040988477874 0.16426829270714433 2.3509886e-038
-0.37409223527331936 0.49898061673651317 0.021197275695650518 2.3509886e-038
-0.3315433000516751 0.46725402743851124 0.18481559200454445 2.3509886e-038
-0.3634291558634418 0.4881234382718841 0.04188985387487369 2.3509886e-038
-0.3302588323115185 0.469092936929364 0.20731846912735108 2.3509886e-038
-0.3564972953889144 0.48357321581956225 0.06231141477049107 2.3509886e-038
-0.34978333400186534 0.4779966695268695 0.08230956564959697 2.3509886e-038
-0.3554475791058197 0.4893939070039246 0.10557768132300305 2.3509886e-038
-0.3273683343153412 0.4540051994995819 0.11786984400573844 2.3509886e-038
-0.34911188877901567 0.4879156160328722 0.14826760323193658 2.3509886e-038
-0.35752138578777726 0.47685853315396787 -6.379661625240257E-4 2.3509886e-038
-0.33639245689176 0.47367665433643796 0.16518659852301015 2.3509886e-038
-0.36528491101019744 0.49059785376020987 0.02060733802848616 2.3509886e-038
-0.3343799803363778 0.4746428072822523 0.18709427674244483 2.3509886e-038
-0.3641060819295221 0.49260652356062007 0.041971731001328845 2.3509886e-038
-0.329698577657645 0.47186524991450696 0.20781253314695158 2.3509886e-038
-0.35699729729187374 0.488169084846885 0.06251370490536906 2.3509886e-038
-0.34571006111592284 0.4760967528019457 0.08156301551825518 2.3509886e-038
-0.36057144211901737 0.5003219492526265 0.107434983257088 2.3509886e-038
-0.3324607029097273 0.4648568073801114 0.12014189262378053 2.3509886e-038
-0.34395477251643836 0.4844990590310458 0.14662823277390583 2.3509886e-038
-0.3557848017696671 0.4781553302088953 -8.343338265094577E-4 2.3509886e-038
-0.33789925838435075 0.47975192306187286 0.16662003629703515 2.3509886e-038
-0.3645995113288274 0.49360351996548235 0.02046218429008199 2.3509886e-038
-0.31729325923794277 0.45415264762396246 0.17830977951447718 2.3509886e-038
-0.36230989204797137 0.4939462831580128 0.041768599796318265 2.3509886e-038
-0.32796870409404344 0.4731551327897152 0.20761689540576428 2.3509886e-038
-0.3565549755598185 0.49097632267214286 0.06253644660802896 2.3509886e-038
-0.34173774934906587 0.4741120084532774 0.08082773674013084 2.3509886e-038
-0.3427807748500854 0.4791775924367627 0.10244143993207322 2.3509886e-038
-0.33885633946813143 0.47716850583104903 0.12284386744271547 2.3509886e-038
-0.32772610768808913 0.46511412705333416 0.1402160456255096 2.3509886e-038
-0.35293828242423636 0.47777572388897716 -0.0010185464874453848 2.3509886e-038
-0.3385156891073455 0.48408296802929246 0.16753164509375368 2.3509886e-038
-0.3665193187592269 0.49964415838851295 0.0204762000298059 2.3509886e-038
-0.3222993540729951 0.4646541606674193 0.18181244292525195 2.3509886e-038
-0.35354723693452667 0.4855376962334078 0.04076195305211362 2.3509886e-038
-0.32311767471847297 0.4697268544756536 0.20539630535950754 2.3509886e-038
-0.35601242419846024 0.493849139612872 0.06254771497585526 2.3509886e-038
-0.3423949682660973 0.478550199057892 0.08118781946958065 2.3509886e-038
-0.35374942848987423 0.498016268469252 0.10602426602980172 2.3509886e-038
-0.33493955337727765 0.4751922572018791 0.12183531746930168 2.3509886e-038
-0.3350095699238301 0.47903875321357814 0.14385596481831014 2.3509886e-038
-0.34773312723664207 0.47415638235113866 -0.0011939894262795459 2.3509886e-038
-0.33902244774966533 0.4884863716908169 0.16843070777258085 2.3509886e-038
-0.3624320978144101 0.4976876406093804 0.020149016662715524 2.3509886e-038
-0.3206782975760393 0.46584595363126796 0.1816288545287869 2.3509886e-038
-0.3518612727010599 0.4867769096370725 0.040571009161547635 2.3509886e-038
-0.3172339898333947 0.4647146961371608 0.20250154355334882 2.3509886e-038
-0.34387605236730867 0.4805442110757687 0.0605193975037414 2.3509886e-038
-0.3453201214216003 0.4862296134863408 0.08209020831165031 2.3509886e-038
-0.33944217209572447 0.48162864490109575 0.10206328276807591 2.3509886e-038
-0.32879652024539846 0.469985759831928 0.1200094986938271 2.3509886e-038
-0.33334078284181873 0.48025814621046325 0.14366685716251565 2.3509886e-038
-0.3425573257492869 0.4705068547934676 -0.001366242308198977 2.3509886e-038
-0.3285032204750181 0.47711153737205886 0.16387263372164446 2.3509886e-038
-0.3582769455850191 0.4957711768999798 0.01981398988582045 2.3509886e-038
-0.32971168595809175 0.4828181566434267 0.18754439366179204 2.3509886e-038
-0.35482444945583425 0.49449517798213694 0.04091604285086408 2.3509886e-038
-0.3198338788124999 0.47213063717075926 0.20502424935481944 2.3509886e-038
-0.3501862901555254 0.4931749418789127 0.06174231888813811 2.3509886e-038
-0.3436295958213612 0.487458063941027 0.08189853365588301 2.3509886e-038
-0.3490631572387819 0.4989940477263858 0.10528042278439889 2.3509886e-038
-0.32149685162362274 0.4631910983416891 0.11777005263943793 2.3509886e-038
-0.33938096365128 0.49266862507504355 0.1468138104447286 2.3509886e-038
-0.34795513060623295 0.4814154264158055 -0.0015832623720493239 2.3509886e-038
-0.32684007069191096 0.47831701203406 0.16368401621100553 2.3509886e-038
-0.35189572843857475 0.4905206709812063 0.019362423960365475 2.3509886e-038
-0.31520552538349633 0.4651179577677469 0.18003011228957788 2.3509886e-038
-0.3554228945835904 0.4989895182561628 0.04098832716684767 2.3509886e-038
-0.32238631928387995 0.4795723599656345 0.20754144340185843 2.3509886e-038
-0.34626535898788846 0.49109743651155174 0.06115265086824885 2.3509886e-038
-0.33057483849468544 0.47244532063996086 0.07899174077029042 2.3509886e-038
-0.3428309084964181 0.4937696633328131 0.10372311907968892 2.3509886e-038
-0.32440909853996414 0.47074316093277596 0.119229526887976 2.3509886e-038
-0.32560519226070506 0.4762649326735046 0.14138263745415755 2.3509886e-038
-0.35561323389117294 0.49561673192659433 -0.0018204706385308023 2.3509886e-038
-0.3274173403258235 0.48264259384341046 0.1645906626976339 2.3509886e-038
-0.352598610972096 0.4949399451571646 0.019305937905608923 2.3509886e-038
-0.3126010025760174 0.46464578105100496 0.17924549704425619 2.3509886e-038
-0.3444736395785079 0.4871997928586659 0.03972870850094471 2.3509886e-038
-0.3186230001004864 0.47764329113025433 0.20600061968428546 2.3509886e-038
-0.34570004350066597 0.49395028113114037 0.06116078325430374 2.3509886e-038
-0.33797511285132154 0.48664198297370287 0.08097171057853021 2.3509886e-038
-0.3423179637389188 0.4965602195718343 0.10387732197163613 2.3509886e-038
-0.3249810831940194 0.47514752711615127 0.11985879305239297 2.3509886e-038
-0.3293998127969193 0.4854885286406802 0.14357124266320476 2.3509886e-038
-0.344612180364771 0.48381262208676734 -0.0019627775287474614 2.3509886e-038
-0.33003511233691774 0.49023193154781625 0.16656989661887345 2.3509886e-038
-0.35549801912350076 0.5026950414270177 0.01936234310995644 2.3509886e-038
-0.3078070282270115 0.4610497760362326 0.1772342720813923 2.3509886e-038
-0.3439284576628353 0.49004041456906766 0.0396688058652165 2.3509886e-038
-0.31591653239339934 0.477262844492662 0.20513645794642582 2.3509886e-038
-0.34966013239883964 0.5033421623499996 0.061971833470467114 2.3509886e-038
-0.33515861722073365 0.48621286331367086 0.08050931607797644 2.3509886e-038
-0.32826358711389203 0.4799522653508551 0.09994445202219951 2.3509886e-038
-0.3255265180639463 0.4795621651756664 0.12048491959632282 2.3509886e-038
-0.3179425261301576 0.4721843891080407 0.13910617256089688 2.3509886e-038
-0.334851887582046 0.4735714269805032 -0.0021026819660771787 2.3509886e-038
-0.32396399416835786 0.4851002679513257 0.16419833112126803 2.3509886e-038
-0.3548147118199654 0.5056295367620789 0.019216366092933694 2.3509886e-038
-0.3134819652515381 0.4733656441064073 0.1813010875933651 2.3509886e-038
-0.34108619021802083 0.4896083324405981 0.03934382945794504 2.3509886e-038
-0.30701468066854776 0.4674257142950339 0.2002279508275715 2.3509886e-038
-0.3365308204622707 0.4882540389201741 0.05975775394503213 2.3509886e-038
-0.33346826581867717 0.48740542407451165 0.08031711856207169 2.3509886e-038
-0.34320039966814175 0.5055935622609331 0.1048268588668583 2.3509886e-038
-0.3150230184944187 0.4678027736278375 0.11703463274655507 2.3509886e-038
-0.3303314151794414 0.4943441842684922 0.14508276610608703 2.3509886e-038
-0.3412527337746965 0.48618634636896113 -0.002344701062610144 2.3509886e-038
-0.3222731335983379 0.48629012472105587 0.16400602923537766 2.3509886e-038
-0.34963251718944904 0.5019426721941781 0.018832198988141726 2.3509886e-038
-0.3128773767907942 0.4761189764981622 0.18172107758086398 2.3509886e-038
-0.3416564791904394 0.4940866264463019 0.039412367492265094 2.3509886e-038
-0.30641138765145315 0.47015022853254806 0.20071590531947925 2.3509886e-038
-0.3360434667266735 0.4910253418215213 0.05977434907362289 2.3509886e-038
-0.33066051454952416 0.486952552518236 0.07985545530292083 2.3509886e-038
-0.3337317008899361 0.4953798857419103 0.10226419403276799 2.3509886e-038
-0.30912230523930256 0.46237238502695 0.11523557080012772 2.3509886e-038
-0.32968346423692974 0.4971672305717143 0.14536030112735254 2.3509886e-038
-0.33613693276100787 0.4824414088420457 -0.0025109333084151614 2.3509886e-038
-0.32066305671413414 0.4874149796473303 0.1638227911707283 2.3509886e-038
-0.34570370729251154 0.4998098215879996 0.01852205142659845 2.3509886e-038
-0.3123409613019831 0.4788162498890688 0.18214868319533656 2.3509886e-038
-0.34784668379650396 0.5068021508700908 0.040129151813410965 2.3509886e-038
-0.3098840816018917 0.47920266551325585 0.20389372470431888 2.3509886e-038
-0.33881022500954794 0.4987968511828189 0.06037717579521319 2.3509886e-038
-0.3246207136500273 0.4814972139859771 0.07859932708790057 2.3509886e-038
-0.34305495067692326 0.5129039006530179 0.10544670772711645 2.3509886e-038
-0.30967843119729 0.46675389985419163 0.11586252483202655 2.3509886e-038
-0.3184216773724629 0.483700389934188 0.14091708400096994 2.3509886e-038
-0.3436511608292235 0.49670140780563804 -0.002765157644012209 2.3509886e-038
-0.31685876593656404 0.48536820339600695 0.16254925565621836 2.3509886e-038
-0.34396957789183763 0.5010121521903009 0.01832455585443231 2.3509886e-038
-0.30756428713836975 0.47517391244763635 0.1801389075234287 2.3509886e-038
-0.3338117071969047 0.4898189528009258 0.038512384927875225 2.3509886e-038
-0.31033024984747337 0.4834734264945465 0.20505740075837564 2.3509886e-038
-0.3382768619343278 0.5015835959563905 0.06038828226992363 2.3509886e-038
-0.32184467906022324 0.4810052216421228 0.07814101417236252 2.3509886e-038
-0.32382569518841114 0.4878527102909941 0.09986356695510779 2.3509886e-038
-0.31352204585024435 0.4759963589538505 0.11770915258960182 2.3509886e-038
-0.32098844617437194 0.4913692588309996 0.14261403467819236 2.3509886e-038
-0.33173897111404527 0.4830497918772615 -0.00287316605827434 2.3509886e-038
-0.32363062115318697 0.49940419008461323 0.16668150650813157 2.3509886e-038
-0.3423182583219896 0.5021487050158314 0.018136364397310735 2.3509886e-038
-0.3049596995008296 0.4746534525960505 0.1793535516433571 2.3509886e-038
-0.3332293811140191 0.49264180481530834 0.038447590752131375 2.3509886e-038
-0.3035832738338159 0.4766888764139593 0.20150666211400364 2.3509886e-038
-0.3354273533847655 0.5011242573185168 0.059991635267995364 2.3509886e-038
-0.32244979704869703 0.48539558444458647 0.07849388764530824 2.3509886e-038
-0.33523240048162306 0.5087122403415932 0.10370722831614165 2.3509886e-038
-0.31615207456322625 0.4836885653692769 0.11913563573304445 2.3509886e-038
-0.3140752694347385 0.4843274111103147 0.14007056164599205 2.3509886e-038
-0.32902109345854025 0.48248515891189614 -0.003044182089331146 2.3509886e-038
-0.3135563464854263 0.48763349444061943 0.16217278150668524 2.3509886e-038
-0.34281671510932316 0.5066505024279546 0.0180556946745737 2.3509886e-038
-0.30432907638022444 0.4773914851533097 0.17977007060317085 2.3509886e-038
-0.33716850977794316 0.502035762538721 0.03890428572670211 2.3509886e-038
-0.2989829218597339 0.47299000149629294 0.19931316750888323 2.3509886e-038
-0.32496113223881495 0.48898904928027703 0.05822402264115556 2.3509886e-038
-0.33167284017966425 0.5030923006141262 0.08096470706916932 2.3509886e-038
-0.3205128771633755 0.4901124101943406 0.09948571431972317 2.3509886e-038
-0.30922143769251387 0.47655834229765737 0.11693700853483763 2.3509886e-038
-0.31975106115251095 0.49691479277231737 0.14317486642189 2.3509886e-038
-0.32286399831338786 0.47699553092081737 -0.0031907559661077875 2.3509886e-038
-0.3119419853367923 0.48872890419437875 0.1619885636967448 2.3509886e-038
-0.3433765067757978 0.5111020131335314 0.017981896223983582 2.3509886e-038
-0.30886359442366884 0.4881296941303974 0.18321764279701658 2.3509886e-038
-0.3354255693151519 0.5032172825659686 0.038705378251370805 2.3509886e-038
-0.29633112054383826 0.472512164579127 0.19845431399197166 2.3509886e-038
-0.3287414090292533 0.4984440722954545 0.05901365911226124 2.3509886e-038
-0.32232716255219807 0.49266132213770975 0.07890534383166939 2.3509886e-038
-0.3360728706299586 0.5176672737808546 0.10465035999374811 2.3509886e-038
-0.3043810339347943 0.4727352962870965 0.11553988873473273 2.3509886e-038
-0.3201126887312962 0.5013577287653648 0.14391789744735226 2.3509886e-038
-0.3279019213646264 0.4880701440487056 -0.003450024835582384 2.3509886e-038
-0.30817727561452746 0.48662118608342614 0.16071902020001877 2.3509886e-038
-0.3327304822635059 0.4989894961348615 0.01731760638557188 2.3509886e-038
-0.29905152585950956 0.47635726524058436 0.17819096915574478 2.3509886e-038
-0.3347798250571117 0.5060573589065978 0.03863295480820794 2.3509886e-038
-0.3016510180346659 0.4848216568420224 0.2029547276629718 2.3509886e-038
-0.3259199552007418 0.4979397342930077 0.058619821443339215 2.3509886e-038
-0.3173760464713207 0.4888207750573575 0.07791464599067063 2.3509886e-038
-0.3256408233325455 0.5056698259031448 0.1017651064133894 2.3509886e-038
-0.29957123846115563 0.4688834969403779 0.11414614056214473 2.3509886e-038
-0.30692214798188755 0.48446078361579137 0.1385520549210407 2.3509886e-038
-0.3262097215657618 0.4892013618378094 -0.0036433830229979716 2.3509886e-038
-0.3115202673181311 0.49596872853938895 0.1631997567881583 2.3509886e-038
-0.3353247327424176 0.5068734950629208 0.01733800736332501 2.3509886e-038
-0.29629931646115215 0.47590347185023735 0.17738825958865934 2.3509886e-038
-0.33411848289011914 0.5088988762703084 0.038558614617501305 2.3509886e-038
-0.2969893555231181 0.48113951656871023 0.20075385950421254 2.3509886e-038
-0.33169127586035146 0.5108339592448301 0.05977969467542958 2.3509886e-038
-0.3135295656917755 0.48661765747574726 0.07719171010200263 2.3509886e-038
-0.32069622552222327 0.5018531637279682 0.10056503513230991 2.3509886e-038
-0.2978576811668849 0.4700214910712263 0.11395022816671876 2.3509886e-038
-0.30730425336253364 0.48887258334860667 0.13929716111688856 2.3509886e-038
-0.3200984589657918 0.48365560620894466 -0.0037851103555432697 2.3509886e-038
-0.3118299854148986 0.5003854774599796 0.1640745087301722 2.3509886e-038
-0.3313717398200081 0.5046969033870041 0.01702418385501798 2.3509886e-038
-0.2946397873294598 0.47700328966460775 0.1771984894478073 2.3509886e-038
-0.3269034464229279 0.5017078640670852 0.03772779873644405 2.3509886e-038
-0.2943260562016144 0.48064419283890075 0.19989332525673126 2.3509886e-038
-0.31814272429917706 0.4935436794349372 0.057444869732702464 2.3509886e-038
-0.31397397675488614 0.49107446618762984 0.07752559865605194 2.3509886e-038
-0.31155791027980034 0.49134518865678695 0.09803900710511035 2.3509886e-038
-0.30047702208479393 0.4776800402157561 0.11537487101356445 2.3509886e-038
-0.30663076409620715 0.4916437882858021 0.13957073243660448 2.3509886e-038
-0.31293152690976744 0.4764017742248863 -0.003908412186846989 2.3509886e-038
-0.3020644141123886 0.48836548709931893 0.15960039867726905 2.3509886e-038
-0.3362589557875575 0.5158402816513873 0.017168314065798995 2.3509886e-038
-0.29505332905092796 0.48129461239056576 0.17822189228858265 2.3509886e-038
-0.3229940260488299 0.49950096156114393 0.03727831095003134 2.3509886e-038
-0.28971260314050556 0.47691323211909553 0.19769769894985662 2.3509886e-038
-0.3185735960404496 0.49802097043645993 0.05763675954614417 2.3509886e-038
-0.32076416612695724 0.5055853538374728 0.07943443718561469 2.3509886e-038
-0.32254202464838355 0.5124378783975184 0.10183363279673568 2.3509886e-038
-0.2988146439514627 0.4787675424336626 0.11518455958032053 2.3509886e-038
-0.30901145626326276 0.4993773127930592 0.14124551486333212 2.3509886e-038
-0.3168249697622558 0.4858031590539043 -0.004159771747983779 2.3509886e-038
-0.3013705721392904 0.49111995209483494 0.1599404758171623 2.3509886e-038
-0.3333834672166657 0.5153305451268038 0.016908341424384306 2.3509886e-038
-0.29436617867865056 0.48402020861863376 0.17863119017610468 2.3509886e-038
-0.32557227052807763 0.507352633849299 0.03757747949872086 2.3509886e-038
-0.29388737118808356 0.4876880855918891 0.20151068040871462 2.3509886e-038
-0.3189773791755768 0.5025074504231707 0.05782541970561031 2.3509886e-038
-0.3137253552327335 0.4983379461279464 0.07792134692364301 2.3509886e-038
-0.3103116739153702 0.4968662596240201 0.09831908548025856 2.3509886e-038
-0.2878625607033801 0.4648538959665493 0.11140013558137626 2.3509886e-038
-0.3001503092520752 0.4889042589098516 0.13777700906424756 2.3509886e-038
-0.31514074448766183 0.48689572002089615 -0.004352724364538409 2.3509886e-038
-0.2996592318887855 0.492229708436233 0.15974441080331636 2.3509886e-038
-0.3240348726543437 0.5047127765341886 0.016322647707663236 2.3509886e-038
-0.293663927816097 0.48674703989464396 0.17903861317834935 2.3509886e-038
-0.32595557796191854 0.5118608760272584 0.03762321011223368 2.3509886e-038
-0.28831569199885837 0.4823158603166153 0.19864925619838503 2.3509886e-038
-0.31935389482877274 0.507002923502163 0.058010824046940065 2.3509886e-038
-0.3067408277929534 0.4910468314149511 0.07641434488550183 2.3509886e-038
-0.3293635996735814 0.5315144356340626 0.1047284727174441 2.3509886e-038
-0.2944525658350273 0.47925509726504634 0.11440363897793929 2.3509886e-038
-0.3075530650926689 0.5049493701616388 0.14177925432629734 2.3509886e-038
-0.3122875834158398 0.4863536716211233 -0.004540224178896449 2.3509886e-038
-0.3029263866054749 0.5015831477025748 0.16221580221075527 2.3509886e-038
-0.3179868123376736 0.4990944944823852 0.015906950654581534 2.3509886e-038
-0.287067981014569 0.4796531640164998 0.17584329346608296 2.3509886e-038
-0.31884685621009456 0.5045653718873323 0.03680403513209657 2.3509886e-038
-0.2885565928846054 0.4866413622955188 0.19978824113171229 2.3509886e-038
-0.31759282371105835 0.508130941440743 0.05780884923856015 2.3509886e-038
-0.3050341981850586 0.4921390949008989 0.07621860050037794 2.3509886e-038
-0.3067650463511502 0.4991437476633517 0.09791241519816696 2.3509886e-038
-0.29482513521213083 0.4836684773203455 0.11500824076389213 2.3509886e-038
-0.2927179048840992 0.48443133334692773 0.13552322946519132 2.3509886e-038
-0.3106014349466004 0.4874303611674725 -0.004733656861275207 2.3509886e-038
-0.2971295082467429 0.49613961514314464 0.1598736222648489 2.3509886e-038
-0.3225775963930686 0.5103951137237485 0.016016586511837877 2.3509886e-038
-0.2853118705044009 0.4807734751401625 0.17564181886120173 2.3509886e-038
-0.31603485121154423 0.503991229651163 0.03648066913440308 2.3509886e-038
-0.2878149174554143 0.48934967951540465 0.20025874915855268 2.3509886e-038
-0.31678851606807235 0.5110007269342206 0.057787506369344446 2.3509886e-038
-0.30635359461931944 0.49834756836864214 0.07679341229827222 2.3509886e-038
-0.2988669860552515 0.4901393274770468 0.09573916970346619 2.3509886e-038
-0.29508581848414966 0.4881445058295233 0.11559987366457153 2.3509886e-038
-0.2959457597187627 0.4938967071301591 0.1376449934159726 2.3509886e-038
-0.30134674635036407 0.4767210193210096 -0.0048177635110986175 2.3509886e-038
-0.2954007360718778 0.4972346051914388 0.15967516455860614 2.3509886e-038
-0.3250561724182629 0.5182912139958225 0.016022776633635008 2.3509886e-038
-0.2894438497873827 0.49170136767814066 0.17904220539644428 2.3509886e-038
-0.3131434791029602 0.5034585488981814 0.036148058384376486 2.3509886e-038
-0.28032069694147116 0.48070655679730107 0.19606514809872866 2.3509886e-038
-0.30666895471181 0.49855358449049547 0.056058285973868055 2.3509886e-038
-0.30255635835661504 0.4960526687712892 0.07607520834278086 2.3509886e-038
-0.2980980272576793 0.49295444678125616 0.09586189534588418 2.3509886e-038
-0.29137080904046103 0.4858510098947153 0.11461161271862738 2.3509886e-038
-0.30118405401095055 0.5066836414017784 0.14069789815098258 2.3509886e-038
-0.30394506535761934 0.4845365021651424 -0.005078637444531464 2.3509886e-038
-0.2916242934768528 0.4950552769106023 0.15840307491503147 2.3509886e-038
-0.31683153262984953 0.5092913094375459 0.015495969228610563 2.3509886e-038
-0.27994759638680555 0.47964551716980897 0.17405050616620765 2.3509886e-038
-0.31873529188147487 0.5164475670906047 0.03679454720441206 2.3509886e-038
-0.280532724055287 0.4850252121904524 0.19720043705485046 2.3509886e-038
-0.3081365025183975 0.5046806124651988 0.056439354964684385 2.3509886e-038
-0.30605385029488474 0.5055590914983747 0.07718200847103143 2.3509886e-038
-0.3097581750100543 0.5159079261370527 0.09994453057499467 2.3509886e-038
-0.28374891562992044 0.476746315856717 0.11205138592552563 2.3509886e-038
-0.3004965978296889 0.5094051540026369 0.14096898544772626 2.3509886e-038
-0.3013759814198079 0.4837821535220248 -0.005234024691276068 2.3509886e-038
-0.28715195233390917 0.4910297783491291 0.15663179571383967 2.3509886e-038
-0.3131401717207293 0.5068804915460459 0.015211144553004052 2.3509886e-038
-0.28609754411263594 0.4937952190265923 0.17865767034910934 2.3509886e-038
-0.31390376573889534 0.5124015394819037 0.03623761726082591 2.3509886e-038
-0.2789252862861191 0.4860262805172399 0.19701564917877978 2.3509886e-038
-0.3053520362148877 0.5040661732402354 0.056048447366682394 2.3509886e-038
-0.2940855505477488 0.4896476703539532 0.07439674903565209 2.3509886e-038
-0.3059446221099762 0.5136304601679647 0.09908419234617463 2.3509886e-038
-0.2820900539076879 0.47777444741727254 0.1118606111649105 2.3509886e-038
-0.2869312952370455 0.49035210693172265 0.13520849443271815 2.3509886e-038
