VERSION 0.7
FIELDS x y z rgb
SIZE 4 4 4 4
TYPE F F F F
COUNT 1 1 1 1
WIDTH 659
HEIGHT 1
VIEWPOINT 0 0 0 1 0 0 0
POINTS 659
DATA ascii
1.4728819227121202 -2.194298830075724 -0.7457800213505974 2.3509886e-038
1.877872300126899 -2.6451915062004296 0.009763921254482444 2.3509886e-038
1.8075808164201908 -2.6750697857735775 -0.7909685835983571 2.3509886e-038
1.5437544559294414 -2.26978447265308 -0.572115890696542 2.3509886e-038
6.31842100973936 -8.79263394718225 0.7873414928971525 2.3509886e-038
1.5723467267037918 -2.296202847445156 -0.4797455586268071 2.3509886e-038
6.372129398913521 -8.810155143372752 1.1718611518625774 2.3509886e-038
1.5842362827498377 -2.299023191517954 -0.3818513275990164 2.3509886e-038
6.011212455150767 -8.260154354864536 1.4620503473487978 2.3509886e-038
6.506759452793759 -8.885692139971141 1.9692416711202476 2.3509886e-038
1.1088112165016497 -1.6885836963818486 -0.7242509186409014 2.3509886e-038
1.5205928389349697 -2.185141383808258 -0.17657838835369694 2.3509886e-038
1.2777492926305367 -1.9321921958076262 -0.7406855228636695 2.3509886e-038
1.5294859685413362 -2.1844595292292297 -0.08387577716522504 2.3509886e-038
1.4823074553167805 -2.2253418246613235 -0.7535932156833924 2.3509886e-038
1.8698512727184882 -2.6533103089664962 0.010810934136355033 2.3509886e-038
1.8112456782566837 -2.7010165096013217 -0.795614905173816 2.3509886e-038
2.026624797192638 -3.0024415811612495 -0.7537492001684012 2.3509886e-038
6.331205006654892 -8.817127539738777 1.1733848335594912 2.3509886e-038
5.976851934397711 -8.272268509688223 1.463870887174524 2.3509886e-038
1.5884002032603042 -2.3079268461344378 -0.2834013659910055 2.3509886e-038
6.463320129959846 -8.88980827356858 1.9688461805490762 2.3509886e-038
1.104972378487172 -1.695880807660915 -0.7249306962899027 2.3509886e-038
1.4993948731853344 -2.1707667122066048 -0.17413662920408324 2.3509886e-038
1.278325796756119 -1.94807503643456 -0.7441799545680072 2.3509886e-038
1.5241872889836636 -2.1930629450039216 -0.08313990506017731 2.3509886e-038
1.4862264876783438 -2.2484538287351197 -0.758673664719564 2.3509886e-038
1.8572111346676192 -2.654850083808602 0.011833311402057456 2.3509886e-038
1.7910730479981438 -2.6914414377200218 -0.7898006188281239 2.3509886e-038
6.258872147419208 -8.89210660394524 0.41820930325321437 2.3509886e-038
2.0804709015605716 -3.1057552124598677 -0.776563272333298 2.3509886e-038
2.130063220359114 -3.1592391700363773 -0.6542148461469178 2.3509886e-038
5.934397041977553 -8.272986171253043 1.4637035423448035 2.3509886e-038
1.5848717329001245 -2.3201084418754903 -0.2832935855725519 2.3509886e-038
6.431445074271572 -8.909696654407163 1.9719810351636795 2.3509886e-038
1.1007996403648903 -1.703379442186677 -0.7255720641930383 2.3509886e-038
1.497500814144793 -2.184251457148555 -0.17393610757992828 2.3509886e-038
1.261132781890045 -1.9368444910838147 -0.7373295469974477 2.3509886e-038
1.5086322534981527 -2.186845677602105 -0.08184464177882173 2.3509886e-038
1.4843308489832303 -2.263847595439473 -0.7609863975250728 2.3509886e-038
1.8600903689056332 -2.679653011980469 0.013018964829151825 2.3509886e-038
1.789790678435394 -2.711267450238286 -0.7924739745783707 2.3509886e-038
6.2246272725280525 -8.908633368597796 0.4214765039216726 2.3509886e-038
2.0599023290438576 -3.098598739110054 -0.7716798880747695 2.3509886e-038
6.26471398516193 -8.910629404172084 0.8025851847633758 2.3509886e-038
2.134420878163371 -3.1898155067099445 -0.657695587545724 2.3509886e-038
6.300729545602735 -8.906266252455817 1.1865519737773291 2.3509886e-038
1.628180651729356 -2.401471691507213 -0.29157712087652876 2.3509886e-038
6.397218971080621 -8.926267899526625 1.9744171708175076 2.3509886e-038
1.100953417089754 -1.7170067725702867 -0.7289347621586026 2.3509886e-038
1.4917819336389062 -2.193062063422708 -0.1732917997964109 2.3509886e-038
1.2581738869247725 -1.9481541897100434 -0.738951998243486 2.3509886e-038
1.4897504532200867 -2.1755983063860413 -0.08037297255573952 2.3509886e-038
1.4732894568413921 -2.2644605844165975 -0.758467713748864 2.3509886e-038
1.8542024271694193 -2.6910146287495973 0.014101054560363646 2.3509886e-038
1.7846044715220892 -2.7242941569840813 -0.7932936848986087 2.3509886e-038
6.18879950953583 -8.926092304327746 0.42492615279933266 2.3509886e-038
2.1952095273898204 -3.328773022067993 -0.8255360977741895 2.3509886e-038
6.241847283737133 -8.943378367779687 0.8071260886458025 2.3509886e-038
2.9728706028171943 -4.476790335977862 -0.9190750064498501 2.3509886e-038
6.280196233052566 -8.942165728334302 1.1920072564849846 2.3509886e-038
1.546237865123389 -2.313443196026845 -0.376819456114449 2.3509886e-038
2.370872165404297 -3.52332852576485 -0.42537804210848984 2.3509886e-038
6.3675116255382065 -8.94912402311104 1.9782790380616007 2.3509886e-038
1.09495945684312 -1.7211240088465432 -0.7282530784772767 2.3509886e-038
1.481198264816101 -2.193067432434774 -0.17207992167392966 2.3509886e-038
1.2537750986382625 -1.9557953179446832 -0.7394309742400771 2.3509886e-038
1.476582662597957 -2.1725129044716502 -0.07921293711655077 2.3509886e-038
1.462261902471246 -2.2650231675800487 -0.7559499031974617 2.3509886e-038
1.8471303926760507 -2.7007152830252856 0.015180843361368934 2.3509886e-038
1.7861843505581505 -2.7467671266077587 -0.7969954890645115 2.3509886e-038
6.154882052814797 -8.939649043770265 0.42795340748111044 2.3509886e-038
2.19922155506309 -3.3592565892676864 -0.829951984268753 2.3509886e-038
6.1995220825518285 -8.948198032439771 0.809166267472615 2.3509886e-038
2.9572978746055796 -4.487455124541712 -0.9173034422157647 2.3509886e-038
6.255349306488284 -8.968817234088851 1.1962215448497813 2.3509886e-038
1.5396941602848808 -2.320323777319604 -0.37621810956889057 2.3509886e-038
2.363053164837328 -3.5383210442021573 -0.42478018072841844 2.3509886e-038
6.327504047784155 -8.957408137581007 1.9789558379008243 2.3509886e-038
1.0872412534056666 -1.7218296224466312 -0.7262599422956069 2.3509886e-038
1.4535802674534328 -2.16841821193547 -0.16888914960948107 2.3509886e-038
1.2510451247409147 -1.9668771431646215 -0.7410783543757176 2.3509886e-038
1.454511627237652 -2.1561033684748203 -0.07757986929163092 2.3509886e-038
1.463075450628382 -2.28310361591807 -0.7594111785725366 2.3509886e-038
1.633736497025408 -2.405652478021107 0.014391956968981157 2.3509886e-038
1.7724020218418532 -2.7467477491676746 -0.7940181707715497 2.3509886e-038
6.109249834796208 -8.939277822932642 0.4304462924200867 2.3509886e-038
2.191795505075567 -3.3737816347790766 -0.8302375973789704 2.3509886e-038
6.159497512865265 -8.956119096606137 0.8115021251308097 2.3509886e-038
2.942469597031908 -4.497536062643282 -0.9156154080971206 2.3509886e-038
6.206208126803099 -8.963757963663019 1.196264303744845 2.3509886e-038
1.5338074898740899 -2.3291155430112367 -0.3758339514984097 2.3509886e-038
5.8965023370995935 -8.462297573841877 1.4962897192828453 2.3509886e-038
1.5822000064762878 -2.3871164403946574 -0.28496007529020356 2.3509886e-038
6.28411841787581 -8.960693153381944 1.9785666776201616 2.3509886e-038
1.0832320535310815 -1.7290909010134494 -0.7269179514663049 2.3509886e-038
1.4515802006338159 -2.181820730071607 -0.1686741478663273 2.3509886e-038
1.2431667284460615 -1.9699058204422626 -0.7396916194315912 2.3509886e-038
1.4448058327435587 -2.157839293315784 -0.076609834838487 2.3509886e-038
1.4613174036323318 -2.298236828100896 -0.7617369594472634 2.3509886e-038
1.5203152430834561 -2.2554014301822622 0.014350099451353127 2.3509886e-038
1.7628336805327889 -2.753212651508966 -0.7929282939840194 2.3509886e-038
2.197034332396628 -3.408052278469672 -0.8353567702854656 2.3509886e-038
6.102619790365483 -8.9391641907661 0.8115955166957685 2.3509886e-038
2.9375598873147633 -4.524632637445098 -0.9171852971366532 2.3509886e-038
6.166180664205831 -8.971578127738388 1.1980477575562984 2.3509886e-038
1.5170362315719284 -2.3213012967739544 -0.37277989570376635 2.3509886e-038
5.957312187242474 -8.612241391021993 1.5226462458910222 2.3509886e-038
1.5695326492136734 -2.3860536516026105 -0.28322583093202824 2.3509886e-038
6.254280240302104 -8.983163760939801 1.982450868081667 2.3509886e-038
1.0801803097283367 -1.7379465219699257 -0.7282418391149921 2.3509886e-038
1.4396067775522794 -2.1802448560588807 -0.1672996827722686 2.3509886e-038
1.2362962463064942 -1.9745181332436665 -0.7389085747470352 2.3509886e-038
1.4406392846933929 -2.1678582683347156 -0.0759315598353999 2.3509886e-038
1.4543352429675682 -2.3052414904858365 -0.7613620542131347 2.3509886e-038
1.5058231594029694 -2.250673496389939 0.01517411785788736 2.3509886e-038
1.761583254570414 -2.772768444287507 -0.7956014549962118 2.3509886e-038
6.04388057346668 -8.97603477296802 0.4372713338562444 2.3509886e-038
2.1883390602691457 -3.420951522821058 -0.8352132929903677 2.3509886e-038
2.933845643968465 -4.555593325661911 -0.9193159008532383 2.3509886e-038
1.5089673441244638 -2.3267018248961344 -0.37186001074011843 2.3509886e-038
6.0283567199384684 -8.779000225587197 1.551999644122931 2.3509886e-038
1.5579801947185006 -2.3865969594935876 -0.2816907035271122 2.3509886e-038
6.225478676582077 -9.007153822086105 1.9867038884791999 2.3509886e-038
1.0747999142381408 -1.7437966876779032 -0.7281853348461234 2.3509886e-038
1.4375080965146092 -2.193636655850371 -0.1670722372673442 2.3509886e-038
1.2324271957465307 -1.9839657271285347 -0.7399351446797653 2.3509886e-038
1.4243119380411353 -2.159516986698453 -0.07461239797215463 2.3509886e-038
1.4479412664028883 -2.3141259171345783 -0.7614744440262626 2.3509886e-038
1.4965225356911511 -2.2544619078569625 0.016096897936126453 2.3509886e-038
1.7555868233058847 -2.786095328194688 -0.7963249453779284 2.3509886e-038
6.013888466582015 -8.9983882768186 0.44090042912736616 2.3509886e-038
2.174331015590248 -3.4255624773827122 -0.8330503837696737 2.3509886e-038
6.062904190832544 -9.01361662268096 0.8216800123599222 2.3509886e-038
6.092433431172315 -8.999256456514573 1.2033333815658471 2.3509886e-038
1.4961838619920846 -2.325674079551342 -0.36983061379284143 2.3509886e-038
1.534538254619369 -2.368714110135413 -0.27800003075874746 2.3509886e-038
6.192125388124861 -9.024561062763576 1.9895399465556274 2.3509886e-038
1.0677302360757004 -1.7462151264193548 -0.7268214753792357 2.3509886e-038
1.4218955019640376 -2.1872113013599135 -0.1652743471541488 2.3509886e-038
1.2251617840727005 -1.9887689369237391 -0.7391059266478308 2.3509886e-038
1.4102508956686695 -2.154432571669215 -0.07341535107785649 2.3509886e-038
1.431747083607628 -2.3063596745710555 -0.756260027391445 2.3509886e-038
1.4887065565371966 -2.2596241052393475 0.016989031724256087 2.3509886e-038
1.75103659011324 -2.8007441518383764 -0.7975645423563107 2.3509886e-038
5.977838724422769 -9.0150011316986 0.4443909594577109 2.3509886e-038
2.18790790309974 -3.475274618792003 -0.8416601962973917 2.3509886e-038
6.019515909995759 -9.015960875078912 0.8235760321045795 2.3509886e-038
2.2990927629152633 -3.6256376279158937 -0.7254250185765561 2.3509886e-038
6.070165477384942 -9.032981657981964 1.2086539454995968 2.3509886e-038
1.4923669175123404 -2.337684728786759 -0.36996549541279244 2.3509886e-038
6.102428130752827 -9.021819481537213 1.5947484378303667 2.3509886e-038
1.5155463943274365 -2.357391112902021 -0.2751067530125673 2.3509886e-038
6.152081825875003 -9.032083836925867 1.9902333877840022 2.3509886e-038
1.0567475699979367 -1.7421580130308754 -0.7227822720916164 2.3509886e-038
1.4276706913616017 -2.2120709335704007 -0.1659603966124959 2.3509886e-038
1.221556547868772 -1.9979732850269887 -0.7401615884989572 2.3509886e-038
1.4049552035059292 -2.1626881406629446 -0.07267440403040917 2.3509886e-038
1.4328022157765148 -2.3263965114460943 -0.7601666513643264 2.3509886e-038
1.462265237741315 -2.2363036521834028 0.017659207925054488 2.3509886e-038
1.7417694705672775 -2.8068175165827496 -0.7965060319956929 2.3509886e-038
5.950366788063545 -9.037775197302931 0.4479455619096464 2.3509886e-038
2.162917733731219 -3.4611986731157063 -0.8351354757333511 2.3509886e-038
5.990499150270085 -9.03972564386024 0.827446674540413 2.3509886e-038
6.029442709002578 -9.03587367929855 1.20983196105971 2.3509886e-038
1.4846470913591991 -2.342734104321282 -0.3690835645253412 2.3509886e-038
6.068378300530036 -9.034627265773608 1.5969731035660413 2.3509886e-038
1.5052155420184632 -2.359388662125357 -0.27378164335736166 2.3509886e-038
6.112053267449829 -9.039441526460783 1.990927546280731 2.3509886e-038
1.0548611047699712 -1.7523816616183012 -0.7247943050012586 2.3509886e-038
1.3963075659301873 -2.180094325608323 -0.16232939219238468 2.3509886e-038
1.213600011266204 -2.000880122421585 -0.7387632184562414 2.3509886e-038
1.4039513985929166 -2.1776545237560008 -0.07215085196914497 2.3509886e-038
1.432135721176755 -2.3429181653244915 -0.7630346352180168 2.3509886e-038
1.4570784173083378 -2.244450116525686 0.01852866868829739 2.3509886e-038
1.7330136983075988 -2.814831536751917 -0.7958568220783531 2.3509886e-038
5.911399935190204 -9.046429294337262 0.4509411936958472 2.3509886e-038
2.1642951917266444 -3.490678239755516 -0.8389619839399642 2.3509886e-038
5.957010101890047 -9.056729218971777 0.830718647757736 2.3509886e-038
2.890891822357676 -4.628644663114278 -0.9184506087484887 2.3509886e-038
5.989394822450279 -9.04292498334085 1.211629996677853 2.3509886e-038
1.4722828650386681 -2.3413074837775243 -0.3671001124991363 2.3509886e-038
6.039335083832637 -9.058192610211524 1.6011261327327766 2.3509886e-038
1.4948907268250626 -2.3613412980567494 -0.2724565856995442 2.3509886e-038
6.078626726979783 -9.056428614240318 1.9937790618439823 2.3509886e-038
1.0526115795314916 -1.7628123455387552 -0.7267644445976227 2.3509886e-038
1.3919521217601898 -2.1900407102378896 -0.16183741981606806 2.3509886e-038
1.204655695250031 -2.0021205786149476 -0.7367623088529234 2.3509886e-038
1.3942413306974735 -2.1791672377039015 -0.07117677533536544 2.3509886e-038
1.4209720681994764 -2.34324978997939 -0.7604963260837769 2.3509886e-038
1.443881580734147 -2.2410685305412588 0.019346032449654327 2.3509886e-038
1.7211837328790804 -2.8178403955301548 -0.7938006560556607 2.3509886e-038
5.8713559503039185 -9.053242615036517 0.45385404144446073 2.3509886e-038
2.1470127801849355 -3.490168450664967 -0.835574320488939 2.3509886e-038
5.921289324225971 -9.070270057796119 0.8336920229585933 2.3509886e-038
2.8851813442113663 -4.6557918807666265 -0.9199216076543066 2.3509886e-038
5.955919315586481 -9.05977170147294 1.2147642144526456 2.3509886e-038
1.4599469320275138 -2.339821782109969 -0.36511922737784674 2.3509886e-038
5.997091871418618 -9.06186622687935 1.601792996780386 2.3509886e-038
1.4888055909815467 -2.369993924416313 -0.27190492588328796 2.3509886e-038
6.047334906888111 -9.07656568403548 1.9973590834051977 2.3509886e-038
1.051264791944106 -1.7748721613536347 -0.7293940756994421 2.3509886e-038
1.3843491179063983 -2.1949186652549075 -0.16096734725477918 2.3509886e-038
1.1996285321372049 -2.0098747487135715 -0.7371648321078521 2.3509886e-038
1.3856103666240265 -2.182325487933837 -0.07025729582683285 2.3509886e-038
1.4177741179454282 -2.3567423300455657 -0.7622325300792312 2.3509886e-038
1.4414983410362492 -2.2544726946969327 0.020311203816916867 2.3509886e-038
1.7214482079636013 -2.840759407555647 -0.797345697461737 2.3509886e-038
5.835666050713727 -9.066605173457356 0.45710509828363843 2.3509886e-038
2.134864980001546 -3.497944020012982 -0.8341838647826816 2.3509886e-038
5.886634398853236 -9.08534304012832 0.8368241025920335 2.3509886e-038
2.875187776119374 -4.676233593320739 -0.9200517378475526 2.3509886e-038
5.921315808812702 -9.074827019194085 1.2176822007975296 2.3509886e-038
1.4518135126926086 -2.345021854227661 -0.3641881703251244 2.3509886e-038
5.954897857912295 -9.0653538885233 1.6024566481469416 2.3509886e-038
1.4721494878893475 -2.3617379312143663 -0.2694207978920234 2.3509886e-038
6.015969377261905 -9.09659624089572 2.0009499485031084 2.3509886e-038
1.0431608446869247 -1.7755643616939352 -0.7273526503443732 2.3509886e-038
1.3735533190746234 -2.194692649762944 -0.15972543533311095 2.3509886e-038
1.192620074597849 -2.014335026211965 -0.7363622309715296 2.3509886e-038
1.3759085103169886 -2.1837579330878745 -0.06928298450278811 2.3509886e-038
1.405610622815335 -2.3553460596342197 -0.7591580589873463 2.3509886e-038
1.4497556191677823 -2.2847725346759553 0.021444022147478092 2.3509886e-038
1.7175681764117618 -2.8570489029629256 -0.7990097324835004 2.3509886e-038
5.806407296790905 -9.089931300822203 0.46087336684224356 2.3509886e-038
2.1267507778992574 -3.5123829950391023 -0.8343824659751966 2.3509886e-038
5.839002086809495 -9.080156239586174 0.8381048533419562 2.3509886e-038
2.871252163859255 -4.706767176071785 -0.9221480366138157 2.3509886e-038
5.89315953292649 -9.099758837557927 1.2219506786562455 2.3509886e-038
1.4478137810734455 -2.356951799986912 -0.3642990641324084 2.3509886e-038
5.923554171637905 -9.085231258079265 1.606047192802599 2.3509886e-038
1.457663426759518 -2.3567797396193604 -0.2673288009367599 2.3509886e-038
5.980217084540017 -9.109938400303507 2.0031049693354515 2.3509886e-038
1.034115906387265 -1.7745921871432448 -0.7246464797480683 2.3509886e-038
1.365934423931578 -2.199505787352778 -0.15885236959880525 2.3509886e-038
1.1971903033789912 -2.0385145012777803 -0.7427509087142985 2.3509886e-038
1.3736320290993569 -2.1970165965205686 -0.06867974984379363 2.3509886e-038
1.4042761164273845 -2.372139369131472 -0.7619471996742782 2.3509886e-038
1.4183897759790893 -2.2525390530571814 0.02198840390033041 2.3509886e-038
1.7135955355549117 -2.8733485040800875 -0.8006623372667192 2.3509886e-038
5.77491250007507 -9.109789181221071 0.4644830275572034 2.3509886e-038
2.1215933466899806 -3.5318489363861216 -0.8357648172407506 2.3509886e-038
5.807561858526813 -9.099964499230735 0.841708498137383 2.3509886e-038
2.5392610006656833 -4.195586583985374 -0.8185313870752544 2.3509886e-038
5.855225046196619 -9.109558456549554 1.2242117552728553 2.3509886e-038
1.447878257637437 -2.3756549197957395 -0.36544389265936716 2.3509886e-038
5.895362257143454 -9.109983604315376 1.61052932462127 2.3509886e-038
1.4515591997252733 -2.365322845095218 -0.2667730496120959 2.3509886e-038
5.935855613222618 -9.109955101579754 2.0023667987789757 2.3509886e-038
1.0298116740947796 -1.781741213015357 -0.7252660042704249 2.3509886e-038
1.3467800531831373 -2.1855966061395566 -0.15663711537469946 2.3509886e-038
1.1900823516022165 -2.0429685329953173 -0.7419358243020779 2.3509886e-038
1.3681192144403203 -2.20518806907656 -0.06791045760389511 2.3509886e-038
1.3921054744132872 -2.370667054298692 -0.7588706481508816 2.3509886e-038
1.4095214697617997 -2.255732075191042 0.022866675219173793 2.3509886e-038
1.6936852688867658 -2.8628686556097938 -0.7948664833894243 2.3509886e-038
2.123351554069634 -3.5631098491680064 -0.8399123106055113 2.3509886e-038
5.773923674948637 -9.116290266885446 0.8450096499319533 2.3509886e-038
2.5216235262233626 -4.199633970088328 -0.815872133143337 2.3509886e-038
5.811951563247194 -9.110824362409273 1.2253480569609052 2.3509886e-038
5.858520060998158 -9.121329340708906 1.6126708266155338 2.3509886e-038
1.4412722580225878 -2.3670506609466173 -0.26544918622218044 2.3509886e-038
5.902243927577212 -9.126291745502531 2.0052517874075066 2.3509886e-038
1.0276601706979538 -1.791962554146546 -0.7272449478731158 2.3509886e-038
1.3468643299882006 -2.202001689102363 -0.15665823500631645 2.3509886e-038
1.1775842177363525 -2.0372635705632645 -0.7375700715790137 2.3509886e-038
1.3587561153651206 -2.206300388195229 -0.06697330349685071 2.3509886e-038
1.3929951109435668 -2.390537799258669 -0.7627540096529173 2.3509886e-038
3.1193919603215248 -5.028850655780624 0.05277075387701324 2.3509886e-038
1.6881539807226003 -2.875462611892577 -0.7956364601885713 2.3509886e-038
3.111732307620427 -4.982525745699973 0.25682807505984107 2.3509886e-038
2.112569288275296 -3.572108666707406 -0.8389566312182004 2.3509886e-038
5.743938732216382 -9.134894979242862 0.8484509804353371 2.3509886e-038
2.509768001818773 -4.2116323985213615 -0.8149355464762027 2.3509886e-038
5.785194137744021 -9.134434145754556 1.2294631011856407 2.3509886e-038
1.4297196615887948 -2.3822848490018957 -0.36307624501339797 2.3509886e-038
5.822175993057648 -9.12988976685324 1.6143405107061435 2.3509886e-038
5.870160331657734 -9.141532598505176 2.007963471152017 2.3509886e-038
1.0251382394352218 -1.8023847644667088 -0.72918104449805 2.3509886e-038
1.3392215285200297 -2.206720596971325 -0.1557807177943841 2.3509886e-038
1.1704809719578173 -2.0416472829549677 -0.7367544718811025 2.3509886e-038
1.3469321908266707 -2.204198101818516 -0.06589045129629473 2.3509886e-038
1.386594421296479 -2.3990159435198075 -0.7628592019407796 2.3509886e-038
3.110346436816216 -5.053225849912403 0.05492053953926357 2.3509886e-038
1.6840160177323404 -2.891721812506041 -0.797267852334923 2.3509886e-038
2.0951791256992833 -3.5713103118245195 -0.8355510358866394 2.3509886e-038
5.710203276935831 -9.150983197394133 0.851767960749199 2.3509886e-038
2.5252442670094455 -4.271603391698247 -0.8230715189177085 2.3509886e-038
5.751476802324063 -9.150518936795955 1.2326393536133868 2.3509886e-038
1.416367766311689 -2.378858057164942 -0.3608330222343322 2.3509886e-038
5.784263916299263 -9.13927386376415 1.6161924897412785 2.3509886e-038
1.3904134263924446 -2.3188946207239556 -0.2571679270817993 2.3509886e-038
5.840690221987995 -9.164259008194804 2.0123197424744994 2.3509886e-038
1.0132865422143413 -1.7963778197154872 -0.7244814037588552 2.3509886e-038
1.3398011758145576 -2.225094848627297 -0.1558591657823636 2.3509886e-038
1.1727979038212033 -2.0625999166592726 -0.7419052751870272 2.3509886e-038
1.3423953747832367 -2.2140074354454486 -0.0651628160316078 2.3509886e-038
1.3686435074027252 -2.387402968799552 -0.7565966436923095 2.3509886e-038
3.093872397778001 -5.0656501834016385 0.05695240106181654 2.3509886e-038
1.6758937132089646 -2.901250044465957 -0.797036587538795 2.3509886e-038
3.0960100814094655 -5.034375030320347 0.26239506988026784 2.3509886e-038
2.0857105004837777 -3.583988324773459 -0.8353078240429166 2.3509886e-038
5.6680223055182966 -9.153387822217551 0.8538278814535518 2.3509886e-038
2.8278051579647157 -4.821934230932767 -0.9252187256863333 2.3509886e-038
5.718763171550847 -9.168167419873523 1.2360506356136352 2.3509886e-038
1.4181874272340695 -2.400981030151668 -0.3624608968895914 2.3509886e-038
5.750556886061135 -9.155205747159714 1.6192319284775376 2.3509886e-038
1.3823588566046277 -2.3238073449022334 -0.2562421860699617 2.3509886e-038
5.800613127730591 -9.17027068967956 2.0130407793629885 2.3509886e-038
1.005176609350242 -1.7968944242250389 -0.7224366038319325 2.3509886e-038
1.375080464015161 -2.301772929224007 -0.15997406768810082 2.3509886e-038
1.1674812257294676 -2.0702952903972625 -0.7422707776128321 2.3509886e-038
1.3316240499095011 -2.213531368662905 -0.06413097414748195 2.3509886e-038
1.3689049815059184 -2.407543685947113 -0.7604060962889276 2.3509886e-038
3.074237729045744 -5.0728900371369985 0.05893188249214676 2.3509886e-038
1.675464266147817 -2.924264479118765 -0.800496740693758 2.3509886e-038
3.075448160656804 -5.039836904922289 0.26413221867194914 2.3509886e-038
2.0702972491377443 -3.5864562770174335 -0.8326907977772362 2.3509886e-038
5.630071853571943 -9.16240182616841 0.8565190652165517 2.3509886e-038
2.8130220092392824 -4.835508405477956 -0.9239423397090094 2.3509886e-038
5.681815950732401 -9.1789373112987 1.2385583206317379 2.3509886e-038
1.4058317106379028 -2.3991900744252077 -0.36047278415973305 2.3509886e-038
5.723089844417746 -9.18108269206116 1.6240596382871697 2.3509886e-038
1.3742884808951392 -2.3286911893699602 -0.25531402524974306 2.3509886e-038
5.7616111588893535 -9.177778717605229 2.014126454216357 2.3509886e-038
1.0025701076494316 -1.8072780230836203 -0.7243614480121905 2.3509886e-038
1.3905044126942132 -2.346092537885292 -0.16177898974299612 2.3509886e-038
1.1565356622902878 -2.067980543035895 -0.7390582881381531 2.3509886e-038
1.3229216503437842 -2.216440328810465 -0.06319871349924328 2.3509886e-038
1.3652541638121503 -2.420997960915303 -0.7620853261956295 2.3509886e-038
3.061804131116916 -5.0920522406793385 0.06105804781314195 2.3509886e-038
1.6614365906788002 -2.9236265612837 -0.7974791950358362 2.3509886e-038
3.06005971438585 -5.053761854991129 0.26632112127710095 2.3509886e-038
2.0734060605247144 -3.6211916746301593 -0.8375520944815644 2.3509886e-038
5.606652659304801 -9.195096646480572 0.8614450914915248 2.3509886e-038
2.810014005016085 -4.869550070957708 -0.926560434007093 2.3509886e-038
5.640701521357162 -9.182789427068212 1.2401545184940126 2.3509886e-038
1.3974932729327068 -2.404200342062771 -0.3595132334388853 2.3509886e-038
5.685101050096045 -9.190058570304398 1.6259275596292468 2.3509886e-038
5.729897853777889 -9.19681133202801 2.0177762383935507 2.3509886e-038
0.9999036225222463 -1.8176676741708218 -0.7262790401087054 2.3509886e-038
1.3874208042370682 -2.3595697583115687 -0.16143027376747524 2.3509886e-038
1.1493250977005194 -2.072292331297012 -0.7382282026902038 2.3509886e-038
1.3427399691708382 -2.2674873458281435 -0.0636168021914278 2.3509886e-038
1.3643509960339273 -2.4395093683337947 -0.7653396455657102 2.3509886e-038
3.0482527299051987 -5.109468949548499 0.06317498386558218 2.3509886e-038
1.6512561143674227 -2.9297074611887153 -0.7963071040459149 2.3509886e-038
3.0404932819808583 -5.060790656193586 0.26815544552193815 2.3509886e-038
2.057901157724022 -3.6235960342599984 -0.834922723339105 2.3509886e-038
5.5686295121586475 -9.2038530473219 0.8641493583972348 2.3509886e-038
2.8068067023077994 -4.90363042681005 -0.9291543246042044 2.3509886e-038
5.609963020215089 -9.203432852460882 1.2440424323924675 2.3509886e-038
1.3841844681073052 -2.40058862993224 -0.3572724791362477 2.3509886e-038
5.657467685165553 -9.215732966882976 1.6307793860145843 2.3509886e-038
5.695021769758261 -9.210713694987682 2.020335077695175 2.3509886e-038
0.9944665609411278 -1.8230898932236657 -0.726208780712813 2.3509886e-038
1.3782257933838646 -2.362705374585621 -0.16036991438579706 2.3509886e-038
1.1439412642441655 -2.0799249187929703 -0.7385843621737773 2.3509886e-038
1.352093046650627 -2.301458085305735 -0.063519693456387 2.3509886e-038
1.3511734696567175 -2.43611427995375 -0.7617230639691659 2.3509886e-038
3.0366543302716686 -5.130293759491763 0.0653467962024793 2.3509886e-038
1.6477039439806331 -2.9476443113123225 -0.7983530657269604 2.3509886e-038
3.0250063931786304 -5.074607862977072 0.27035828980040155 2.3509886e-038
2.0703181225598786 -3.675488072369878 -0.843667852108001 2.3509886e-038
5.528559188182116 -9.209036422115107 0.8665337803885054 2.3509886e-038
2.8004747510491965 -4.932600941834021 -0.9307521907021614 2.3509886e-038
5.579147402691124 -9.223971736784614 1.247941342762147 2.3509886e-038
1.3778123020477953 -2.408965467441714 -0.3568214022417461 2.3509886e-038
5.613260946363036 -9.214302003756448 1.630863523005761 2.3509886e-038
1.3638920056221904 -2.367329908586067 -0.2551173585629041 2.3509886e-038
5.664227496502427 -9.23118591472876 2.024369579246213 2.3509886e-038
0.9899025394820637 -1.8301580705435894 -0.7267946995677961 2.3509886e-038
1.368024715101189 -2.3640775807260477 -0.1591918860467259 2.3509886e-038
1.1385194255567002 -2.0875460038032507 -0.7389356104870879 2.3509886e-038
1.3612258945766729 -2.3355217272682913 -0.06339659428487605 2.3509886e-038
1.3464047869907267 -2.447870067768698 -0.7628519004141858 2.3509886e-038
3.0178570064625925 -5.13902793452154 0.06737429255213168 2.3509886e-038
1.6431041843148058 -2.963891160692797 -0.7999267780117525 2.3509886e-038
3.0125134658906862 -5.093534880039871 0.2728453223619127 2.3509886e-038
2.057528276243322 -3.6830002054201016 -0.8421933466400449 2.3509886e-038
5.489534330133635 -9.215767785360024 0.8690789561965531 2.3509886e-038
2.7852585572154034 -4.946112228129448 -0.9294209426756255 2.3509886e-038
5.550304561926061 -9.247810826673433 1.2523126381897645 2.3509886e-038
5.581400832709008 -9.232985500789617 1.6345370492708167 2.3509886e-038
1.3596245682105388 -2.3790642360402776 -0.2549105884312041 2.3509886e-038
5.624151216336215 -9.236444389500072 2.025102549314335 2.3509886e-038
0.9790558824668157 -1.8255676719312937 -0.7227640767293042 2.3509886e-038
1.133967106774123 -2.096835912915532 -0.7398747151559744 2.3509886e-038
1.353125693697244 -2.340249325018735 -0.06246227407833166 2.3509886e-038
1.3406489033785167 -2.4579287477248135 -0.7634467507652585 2.3509886e-038
3.000042199408184 -5.14942051062885 0.06942922299736132 2.3509886e-038
1.6327841456735723 -2.9699092777684406 -0.7987363305992865 2.3509886e-038
2.992847691308898 -5.100372865965433 0.2746950010707435 2.3509886e-038
5.464732346320151 -9.246362041173644 0.8738947526402763 2.3509886e-038
2.779708150178877 -4.979032669827797 -0.9315293103100339 2.3509886e-038
5.512213555237903 -9.256195695716976 1.2546153522276358 2.3509886e-038
1.3600788414669696 -2.417030700847559 -0.35463466867190974 2.3509886e-038
5.546428935799247 -9.24646689788149 1.637319132750604 2.3509886e-038
1.3523440624224574 -2.385601703444806 -0.2541418272618754 2.3509886e-038
5.5820697347855095 -9.238170917643641 2.0250968713641626 2.3509886e-038
0.9732554664997759 -1.8311105778488042 -0.7226505352707591 2.3509886e-038
1.3446833316178917 -2.3614871883765174 -0.15649193694708438 2.3509886e-038
1.1275595394588325 -2.102753557854216 -0.7396231589778466 2.3509886e-038
1.347992438850472 -2.350151983219924 -0.06166186787791342 2.3509886e-038
1.334411117889983 -2.4682257246188186 -0.7639853432950057 2.3509886e-038
2.984302085942169 -5.165459129707348 0.0716644881040972 2.3509886e-038
1.6200627046618858 -2.972770241226947 -0.7965668739736318 2.3509886e-038
2.9791991114049994 -5.11749636307835 0.2771085609381816 2.3509886e-038
5.426670748497591 -9.254540348653727 0.8766128582403647 2.3509886e-038
2.7662187805519762 -4.995939349078171 -0.9308175531073029 2.3509886e-038
5.4715183763730115 -9.263637692268835 1.2568725486243144 2.3509886e-038
1.3493267586693674 -2.4186556159407497 -0.3531106440034449 2.3509886e-038
5.516902392948858 -9.272633051700529 1.642398689588192 2.3509886e-038
1.3411306102238658 -2.3851730234472197 -0.25263367652089136 2.3509886e-038
5.5521793703930395 -9.259943296218584 2.0295201564146863 2.3509886e-038
0.9730313579692901 -1.8464791640214508 -0.7265151230218418 2.3509886e-038
1.328224523186837 -2.3525222062994717 -0.15458411883500223 2.3509886e-038
1.1171729938781854 -2.102113233846786 -0.7369599008194365 2.3509886e-038
1.3294590094991794 -2.4799657290849972 -0.7650910989619097 2.3509886e-038
2.970374082926414 -5.182673994785256 0.0738314657961745 2.3509886e-038
1.611564955459798 -2.9821320069984143 -0.7962862655489136 2.3509886e-038
2.9545929388426364 -5.117789682959896 0.2786931259371723 2.3509886e-038
5.394630776901254 -9.272902209567961 0.8803138104054034 2.3509886e-038
2.760250873943482 -5.026655007928941 -0.9326637741855608 2.3509886e-038
5.439467800477816 -9.2819917283754 1.2605749433848357 2.3509886e-038
1.3274740001959309 -2.399162625052792 -0.34860819901582274 2.3509886e-038
5.477810126784828 -9.279056869246343 1.6439905147784994 2.3509886e-038
1.3367283784714665 -2.396869717533372 -0.25240953731437427 2.3509886e-038
5.522193469665204 -9.281621482533323 2.0339570494590573 2.3509886e-038
0.9630918784608918 -1.8434538467128054 -0.7231437216485883 2.3509886e-038
1.1102122704396211 -2.106078952740191 -0.7361554976895923 2.3509886e-038
1.316290730865623 -2.4763633331053887 -0.7614724223984233 2.3509886e-038
2.9563673526658754 -5.199850276847042 0.07600884795751528 2.3509886e-038
1.613663009757591 -3.0100533542966192 -0.8010838418614328 2.3509886e-038
2.9456960637229495 -5.141236994789993 0.2813986870350924 2.3509886e-038
5.358550994022993 -9.284242011513197 0.8833662213548439 2.3509886e-038
2.751269274270049 -5.052190821596984 -0.9335265967010686 2.3509886e-038
5.406963161207777 -9.295889030401304 1.263634247058191 2.3509886e-038
1.3271936424044788 -2.4175740438424973 -0.34970554842437396 2.3509886e-038
5.441340051374095 -9.286121239013148 1.6456993111157336 2.3509886e-038
1.3255122155460985 -2.396365437236966 -0.2508998690828894 2.3509886e-038
5.486126350965532 -9.293046363164812 2.0361810429914105 2.3509886e-038
0.9569836972691936 -1.8469084063067294 -0.7224374425961615 2.3509886e-038
1.323926648994052 -2.382513794084937 -0.15409658927691586 2.3509886e-038
1.1152620010004004 -2.1339395462026904 -0.743568353525673 2.3509886e-038
1.3147015086188203 -2.348405837391332 -0.05843974793379647 2.3509886e-038
1.30989690237579 -2.484407432452374 -0.7615716722164656 2.3509886e-038
2.941209992644067 -5.2130023636123815 0.07804111833401672 2.3509886e-038
1.6086674497121005 -3.0262869845542983 -0.8026081362723607 2.3509886e-038
2.9357881220235678 -5.16517912776016 0.2842223618426478 2.3509886e-038
5.327399756742837 -9.304095323976737 0.8872484434068921 2.3509886e-038
2.7420907166846 -5.075493342130611 -0.9341543402829344 2.3509886e-038
5.381755543266166 -9.326056744726344 1.2689922385888859 2.3509886e-038
1.318793761449958 -2.422306566592423 -0.348733999858578 2.3509886e-038
5.411220150535181 -9.307621127698912 1.6500187129438428 2.3509886e-038
1.2970740698918057 -2.3643790170822716 -0.24612015350016314 2.3509886e-038
5.45104151298359 -9.306025393114046 2.0387805673704866 2.3509886e-038
0.9531310286727595 -1.8555657088826079 -0.7236584621665121 2.3509886e-038
1.3079470782543656 -2.3731609921165777 -0.15224235600266023 2.3509886e-038
1.1078240702081152 -2.138109704661075 -0.7427077468068399 2.3509886e-038
1.3191751222948902 -2.3756959918557943 -0.05805255845924495 2.3509886e-038
1.303030469166668 -2.492679435922546 -0.7616155987538478 2.3509886e-038
2.921186972327116 -5.219634565785355 0.08007845848746609 2.3509886e-038
1.5972246494768578 -3.030462634592087 -0.8009336942640806 2.3509886e-038
2.918876089269049 -5.176933484190445 0.28638922151147184 2.3509886e-038
5.284365009731438 -9.303042945217532 0.8891535203883842 2.3509886e-038
2.7281748537769963 -5.092323817955563 -0.9333882980967403 2.3509886e-038
5.339626425204065 -9.326855287799093 1.2703778635173015 2.3509886e-038
1.299063663083889 -2.4060572252183023 -0.34475754180450846 2.3509886e-038
5.381019162036944 -9.329018660662639 1.6543502922487443 2.3509886e-038
1.296479433555969 -2.3829598086975237 -0.24661850732588636 2.3509886e-038
5.410987928255066 -9.310379434665993 2.039524874454913 2.3509886e-038
0.9432282703280704 -1.852431486399478 -0.7202898666185753 2.3509886e-038
1.293966386750409 -2.367228253957484 -0.1506201501223779 2.3509886e-038
1.1003706620669653 -2.1422538639416033 -0.7418448062871772 2.3509886e-038
1.3023418883769091 -2.5129328695005677 -0.7653085493800573 2.3509886e-038
2.907949654192436 -5.238427134504037 0.08231040231971987 2.3509886e-038
1.5866743067121358 -3.0363221201092006 -0.7997120936302669 2.3509886e-038
2.901917823114094 -5.188632354857829 0.288562705349519 2.3509886e-038
5.256072491226586 -9.32785227261285 0.8935484051552551 2.3509886e-038
2.72343725363592 -5.126556641260556 -0.9357940480231701 2.3509886e-038
5.302453792826136 -9.336110449926554 1.2729373274286635 2.3509886e-038
1.2897674339389087 -2.408940812018806 -0.3435399736577034 2.3509886e-038
5.342873603913571 -9.33659275688873 1.656259678305906 2.3509886e-038
1.2900956877145584 -2.3910480955088147 -0.2460208421733716 2.3509886e-038
5.3788231497310655 -9.328183388821103 2.0432500992200096 2.3509886e-038
0.9427288557723634 -1.8678083165895436 -0.7241203121695627 2.3509886e-038
1.2895576119443148 -2.378782752044884 -0.15011154399342835 2.3509886e-038
1.0911692241749864 -2.142964523698828 -0.739803653186841 2.3509886e-038
1.2998049751997847 -2.3795617146578527 -0.05601829958263577 2.3509886e-038
1.2962362833018513 -2.52291035130621 -0.765858593426372 2.3509886e-038
2.889794540784054 -5.248430708930357 0.08441378683733125 2.3509886e-038
1.5796878299525772 -3.049062047702751 -0.8003032079481485 2.3509886e-038
2.877163390272514 -5.186299532035454 0.28996127427570406 2.3509886e-038
5.229615115442973 -9.356053306882693 0.8982922488416425 2.3509886e-038
2.7148151681683483 -5.15383296252541 -0.9369046490242279 2.3509886e-038
5.269183616886556 -9.352138259662762 1.2764435085059866 2.3509886e-038
1.2730228916570148 -2.397766513142738 -0.3403311281952761 2.3509886e-038
5.308641246482318 -9.350890895699067 1.6593900943610587 2.3509886e-038
1.275215540970413 -2.383313580353935 -0.24380113449252594 2.3509886e-038
5.349524182142854 -9.350990776294895 2.0481052225311736 2.3509886e-038
0.9404423934837357 -1.8798270251810314 -0.7266324449387227 2.3509886e-038
1.2898137504785971 -2.3991292619110762 -0.15014541980380702 2.3509886e-038
1.080253572672714 -2.1402231560442426 -0.7365882069634513 2.3509886e-038
1.4482201280599722 -2.6721606901801245 -0.061774599742901296 2.3509886e-038
1.2839420656861433 -2.520832154811267 -0.7627571112874623 2.3509886e-038
2.8792732351351646 -5.272412232138757 0.08675344864785428 2.3509886e-038
1.5726346426867708 -3.0617904022583677 -0.8008857765616468 2.3509886e-038
2.862086853215985 -5.201358517822028 0.29233922574157845 2.3509886e-038
5.188221806084107 -9.353666783836402 0.9000138834867699 2.3509886e-038
2.7060401862865726 -5.1811111512708345 -0.9379961859854384 2.3509886e-038
5.2377975673228745 -9.371515862839264 1.2804316128815056 2.3509886e-038
1.2739360274749236 -2.4198684947758924 -0.34184581095013566 2.3509886e-038
5.270496685523069 -9.358172052869673 1.6613041836177196 2.3509886e-038
1.2738909190317897 -2.39991279227538 -0.2441424117076194 2.3509886e-038
5.316891990127489 -9.364287210163948 2.0509158852542093 2.3509886e-038
0.9271678480781148 -1.8698363127765931 -0.7206499116164342 2.3509886e-038
1.2772053984491314 -2.3946117057086442 -0.14868103272761343 2.3509886e-038
1.0825814879188203 -2.162874879186564 -0.742220406110718 2.3509886e-038
1.4446336735627825 -2.6877543884060766 -0.060939371171585766 2.3509886e-038
1.2681987211906987 -2.5118006908318167 -0.7575790052487743 2.3509886e-038
2.85718869787201 -5.2752820172943595 0.08875496910645997 2.3509886e-038
1.5704691058248048 -3.0828984067255036 -0.8037846438523593 2.3509886e-038
2.8555032841349828 -5.229912456516202 0.2954137559227539 2.3509886e-038
1.2814476374098909 -2.494789532442769 -0.5496186269234753 2.3509886e-038
5.1539204302022625 -9.367701527302621 0.9034334667886137 2.3509886e-038
2.694385709297132 -5.203131716381069 -0.9381199922357688 2.3509886e-038
5.207966032681752 -9.389910045230025 1.2842418438557002 2.3509886e-038
1.2595188339246306 -2.4118722860846633 -0.33918743641338955 2.3509886e-038
5.237836622373216 -9.371329794390592 1.664256730778927 2.3509886e-038
1.269269590369281 -2.4114661927843812 -0.24388875082064887 2.3509886e-038
5.279720693698947 -9.373201391417222 2.0527949811099013 2.3509886e-038
0.9226416712023291 -1.8765650942276928 -0.721235227033578 2.3509886e-038
1.2707625485475735 -2.4026157629562332 -0.1479339763370642 2.3509886e-038
1.0767421535141455 -2.170357368398186 -0.7425175125132968 2.3509886e-038
1.443778474810141 -2.708649073779421 -0.06021065866653766 2.3509886e-038
1.271994200438471 -2.540448029541406 -0.7638846720091488 2.3509886e-038
1.5632499911386835 -3.0956222515950156 -0.8043464864835761 2.3509886e-038
2.848804190921028 -5.260720942010761 0.2987130580573485 2.3509886e-038
1.2709870796836695 -2.4959517635544146 -0.5478433518286029 2.3509886e-038
5.118627956341382 -9.379858949766907 0.9066905650888128 2.3509886e-038
2.6790052922708494 -5.215866909492563 -0.9367561483867428 2.3509886e-038
5.167827937017839 -9.393417154461781 1.2861066065582025 2.3509886e-038
1.29767982087273 -2.506253268308347 -0.35079588357439373 2.3509886e-038
5.207353938783462 -9.39215558219621 1.668632329495697 2.3509886e-038
1.2516799516455315 -2.3982921490244156 -0.24114104273889608 2.3509886e-038
5.2415859060700996 -9.38025736301385 2.0543014488814606 2.3509886e-038
0.9144399491776677 -1.8766607587659108 -0.71917234935083 2.3509886e-038
4.916132883873836 -9.373585139078896 -0.5723138164415109 2.3509886e-038
1.0658028022436195 -2.1675284104228614 -0.7392976844177648 2.3509886e-038
1.4315809551930734 -2.7083556745251456 -0.05900413819671475 2.3509886e-038
1.2622863550688073 -2.5434374709746894 -0.7623383672903867 2.3509886e-038
1.5481144886527538 -3.0926523888852837 -0.8008392609111343 2.3509886e-038
4.987305776849355 -9.286159720731366 0.530042523968095 2.3509886e-038
1.2605360380967867 -2.4970700526156886 -0.5460685732689966 2.3509886e-038
5.089007815087577 -9.402395880646315 0.9109708029989023 2.3509886e-038
2.666251164163829 -5.236077271522728 -0.9365390094234367 2.3509886e-038
5.129623815972213 -9.400246656671824 1.2884477565762644 2.3509886e-038
1.3034749246386426 -2.539135989169603 -0.3537200703096648 2.3509886e-038
5.1767911487858385 -9.412876707557992 1.673019298795694 2.3509886e-038
1.244267650779133 -2.4044862958438804 -0.2403504991933802 2.3509886e-038
5.207272216717664 -9.394035512670404 2.057313888661554 2.3509886e-038
0.9161192188925757 -1.8971562986008732 -0.7249193338923905 2.3509886e-038
1.0599238885911224 -2.1749646339104585 -0.7395891994346744 2.3509886e-038
1.4194044124777139 -2.7080092914356797 -0.05779939936513018 2.3509886e-038
1.2201741107033595 -2.4805191158875077 -0.7411110476994045 2.3509886e-038
3.3161351146254883 -6.274728944366297 0.11242060475768134 2.3509886e-038
4.953261795417618 -9.299623646940308 0.5335782507173343 2.3509886e-038
1.2377946139542733 -2.4735670947284323 -0.5389392089320468 2.3509886e-038
5.054575043401364 -9.416062137464717 0.9144125130412522 2.3509886e-038
5.096159214246701 -9.415656462639122 1.2919875774646181 2.3509886e-038
1.2829509608520149 -2.5207898604617767 -0.34950648416422686 2.3509886e-038
5.1404626372078965 -9.423090058354921 1.6755677695545605 2.3509886e-038
3.0302285848633606 -5.906111848933239 -0.5869126828020761 2.3509886e-038
5.176716975106402 -9.41456498473699 2.06183940281087 2.3509886e-038
0.9135847285499201 -1.9091611769865258 -0.7274002543444713 2.3509886e-038
3.513786795903615 -6.814518216380997 -0.40906776037345577 2.3509886e-038
1.0540091331243635 -2.1823852557462 -0.7398759483333175 2.3509886e-038
1.410012823096778 -2.7129341209648596 -0.056707409896950084 2.3509886e-038
1.1988345718090625 -2.4590010237484674 -0.7323484742207089 2.3509886e-038
3.2851047026679203 -6.2684161816719355 0.1146254508240383 2.3509886e-038
1.2195334091354373 -2.4796949540779476 -0.6377680431266761 2.3509886e-038
4.9079937178005375 -9.29176572064654 0.5358973436405692 2.3509886e-038
1.2675746533566628 -2.555456567517272 -0.5547372352258586 2.3509886e-038
5.021052410007907 -9.431354493219677 0.9180308402522348 2.3509886e-038
1.3003220636867137 -2.5984658742518247 -0.4609807845177756 2.3509886e-038
5.065468694574205 -9.436190483083221 1.2962556920244674 2.3509886e-038
1.2715102316645743 -2.5200527243821034 -0.34775426082339755 2.3509886e-038
5.102242676533083 -9.429687797138811 1.6775017060471464 2.3509886e-038
3.0061102002250357 -5.909719673452856 -0.5838260967342925 2.3509886e-038
5.1460702273342145 -9.434998086605031 2.0663778170762814 2.3509886e-038
0.9028740346265312 -1.904081526620155 -0.7233789558110564 2.3509886e-038
1.0530099932123798 -2.2001467167262017 -0.7436571368930309 2.3509886e-038
1.392360104284987 -2.701828531938241 -0.05528546084295258 2.3509886e-038
1.2230525951662792 -2.5313035713541416 -0.751495247674201 2.3509886e-038
3.256927154379568 -6.267284761615026 0.11692103815824406 2.3509886e-038
1.209194026355421 -2.4806750037465806 -0.6358656027379104 2.3509886e-038
4.887857243938155 -9.331479427602218 0.5409755793798676 2.3509886e-038
1.2223029928000866 -2.4860693326266405 -0.5376978117373696 2.3509886e-038
4.979101715418189 -9.430672197098538 0.920110432246664 2.3509886e-038
1.2289626020384339 -2.4775078504864996 -0.4377304749358615 2.3509886e-038
5.0328248698843225 -9.453120038959542 1.3000542424735655 2.3509886e-038
5.065913932557455 -9.439612535213111 1.6800549653219878 2.3509886e-038
5.111608288904733 -9.448418609716414 2.069414311510494 2.3509886e-038
0.8946263159243204 -1.9040834417261596 -0.7213088842682891 2.3509886e-038
4.782061908442651 -9.434640444193786 -0.5567208285380038 2.3509886e-038
1.0453420733897243 -2.204101355803064 -0.7427645253879978 2.3509886e-038
1.386632216696797 -2.713780041584269 -0.05433759813618229 2.3509886e-038
1.2284255497957755 -2.565475788803585 -0.7592375396379298 2.3509886e-038
3.2287937440683976 -6.266033844002132 0.1192130622528158 2.3509886e-038
1.5117213874756565 -3.129218576048455 -0.7994040094531218 2.3509886e-038
4.849100232150242 -9.335708304446525 0.5440145025484542 2.3509886e-038
4.94830526940734 -9.450994863231177 0.9242565165988372 2.3509886e-038
1.227323059126497 -2.49612069458265 -0.43922325860640377 2.3509886e-038
4.998278047508588 -9.466418575910584 1.3033773821431796 2.3509886e-038
1.2460480223388801 -2.5130918750558093 -0.3435261944110954 2.3509886e-038
5.035136052449976 -9.459865536843635 1.6844760401800185 2.3509886e-038
5.071536204456658 -9.451330606723253 2.0701835020547 2.3509886e-038
0.8895831495081821 -1.9109124230273271 -0.7218314115791387 2.3509886e-038
4.117992773877135 -8.195007833130138 -0.47940924012570474 2.3509886e-038
1.0401030885888682 -2.2132236629397832 -0.7436154663863261 2.3509886e-038
1.3826431742140084 -2.7292930553357886 -0.05345099024906791 2.3509886e-038
1.222804002069305 -2.5770260555153106 -0.7602570496131094 2.3509886e-038
3.2016181144745888 -6.266443567180521 0.12153550454946438 2.3509886e-038
1.4974639981387563 -3.1277469953682306 -0.796344874015019 2.3509886e-038
4.814935237527819 -9.3486608447098 0.5475734213255956 2.3509886e-038
1.9086864163698887 -3.9519424812240462 -0.848510743640847 2.3509886e-038
4.917431296371297 -9.471213126293826 0.928414006811701 2.3509886e-038
4.9563214967696965 -9.465525014310613 1.3047685018660204 2.3509886e-038
5.0024365246154625 -9.476520636667969 1.6882858224220119 2.3509886e-038
1.2457274580458448 -2.5136629333388654 -0.24396553167062068 2.3509886e-038
5.038882679636469 -9.46794750868441 2.0739881557701683 2.3509886e-038
0.8845051784341459 -1.9177294658707924 -0.7223494193142375 2.3509886e-038
1.0291585563115535 -2.2101938281098152 -0.7403919079392971 2.3509886e-038
1.3695895932691422 -2.7269399607703733 -0.05221115276362519 2.3509886e-038
1.2154747178185148 -2.585071228331099 -0.760239866641174 2.3509886e-038
3.1817134864382783 -6.281007821458835 0.12413662278350934 2.3509886e-038
1.4907556775168653 -3.142064428822252 -0.7973105736805224 2.3509886e-038
4.77437972258865 -9.349037110415514 0.5504051683112303 2.3509886e-038
1.8923997289410208 -3.953578953389469 -0.8457720284349934 2.3509886e-038
4.882822844960392 -9.484245013844852 0.9318873994801282 2.3509886e-038
2.618416153457501 -5.420846856114425 -0.9461263591220619 2.3509886e-038
4.925406630701307 -9.485595590597882 1.3090718009705973 2.3509886e-038
2.894493347730522 -5.941681703731572 -0.804542809212702 2.3509886e-038
4.966009952598339 -9.486061160728964 1.6908572760463398 2.3509886e-038
1.2440281853579176 -2.532374669617498 -0.24432842598433252 2.3509886e-038
5.008009003997641 -9.487918910191468 2.0785620486274423 2.3509886e-038
0.8793907213649104 -1.924535558967759 -0.7228626535833897 2.3509886e-038
1.021457216095643 -2.214063952461695 -0.7394938127282316 2.3509886e-038
1.2138182280528231 -2.605362219696729 -0.7638129158569316 2.3509886e-038
3.1590481050385746 -6.290150119248456 0.1266393011571486 2.3509886e-038
1.4872865518559064 -3.1634307579182606 -0.8000512095977856 2.3509886e-038
4.747416307088541 -9.375969291125223 0.5548138939992489 2.3509886e-038
1.877806300293455 -3.958700745170488 -0.8437899413829071 2.3509886e-038
4.848186786482954 -9.497148040913553 0.9353663667269498 2.3509886e-038
2.6089595051881336 -5.449894439874285 -0.9473364561503275 2.3509886e-038
4.893506841140515 -9.50379738803528 1.3131422695162205 2.3509886e-038
4.927754375696971 -9.491955971877566 1.6928066531303685 2.3509886e-038
4.977054750322555 -9.507787783014763 2.083147577654189 2.3509886e-038
