VERSION 0.7
FIELDS x y z rgb
SIZE 4 4 4 4
TYPE F F F F
COUNT 1 1 1 1
WIDTH 636
HEIGHT 1
VIEWPOINT 0 0 0 1 0 0 0
POINTS 636
DATA ascii
-0.09156380576697973 0.5582628115337924 0.17442106607971625 2.3509886e-038
-0.11369789248999013 0.5881602684249425 0.0337690486735064 2.3509886e-038
-0.10865411194513311 0.5754007730933166 0.05340578407799258 2.3509886e-038
-0.10960590167687853 0.5951892257796793 0.07639608059786523 2.3509886e-038
-0.10043168021620716 0.5596864942009518 0.09187225284507625 2.3509886e-038
-0.10106072649963033 0.5779179130245486 0.11576551682872954 2.3509886e-038
-0.09632578955002702 0.566407782293909 0.13417736871925487 2.3509886e-038
-0.11309897314668185 0.5647360843486959 -0.007601610685503926 2.3509886e-038
-0.09387086684277238 0.5676333903053287 0.15555260059557835 2.3509886e-038
-0.11641680725294551 0.5945707039939487 0.012993789874349067 2.3509886e-038
-0.09083140523333111 0.5662010757303321 0.17653907351426606 2.3509886e-038
-0.11101519874513852 0.5846213120928277 0.03331029856676703 2.3509886e-038
-0.1053050854747396 0.5679433325647005 0.052452100322081474 2.3509886e-038
-0.10623126671103958 0.5877670338834596 0.07515901722312718 2.3509886e-038
-0.09755799094114048 0.5542176776687227 0.09069339976455995 2.3509886e-038
-0.09815775330380194 0.5724923712764549 0.11437466823644091 2.3509886e-038
-0.09541523357953724 0.5725403909444696 0.1353124168733037 2.3509886e-038
-0.11124062489322517 0.5651020109811525 -0.007827225891737663 2.3509886e-038
-0.08798151568424012 0.5432241948547967 0.1485489150002247 2.3509886e-038
-0.11559241161517661 0.6008464929452675 0.01288241041219781 2.3509886e-038
-0.08955187387976382 0.5703462023791622 0.17748712622812646 2.3509886e-038
-0.11055361779461306 0.5928493369034274 0.033520410999234335 2.3509886e-038
-0.10404716800176644 0.5722467040752762 0.052572883864736075 2.3509886e-038
-0.10463933861338068 0.5900980644548813 0.07517252412818529 2.3509886e-038
-0.09808046184544778 0.5681938568073116 0.09269340456466704 2.3509886e-038
-0.09649308290721384 0.5748135472347317 0.11451861830329155 2.3509886e-038
-0.09540699176952111 0.5844416384979648 0.13780249917529275 2.3509886e-038
-0.11165978662452974 0.577242132043766 -0.008220865658889576 2.3509886e-038
-0.08790391630158917 0.555033618466886 0.1514418516453539 2.3509886e-038
-0.10980054692712105 0.581600032443441 0.012216746933039223 2.3509886e-038
-0.08727635306943327 0.5688395781903057 0.17665904069114136 2.3509886e-038
-0.10849772365336197 0.5932431441664604 0.03327064262576265 2.3509886e-038
-0.10241129190624004 0.5745872791616243 0.052510884879113554 2.3509886e-038
-0.10021287785342425 0.5768024501432273 0.0731869909133128 2.3509886e-038
-0.0961069484976727 0.5685700019726063 0.09245361553286344 2.3509886e-038
-0.0922682394422448 0.5616368493359025 0.1115825108542326 2.3509886e-038
-0.09183887419267706 0.5752089952202618 0.1352931136185501 2.3509886e-038
-0.11189830321772568 0.5894100493489476 -0.008636560489128739 2.3509886e-038
-0.0865637451239605 0.5592171087965453 0.15224642233041163 2.3509886e-038
-0.10996959950547464 0.5937790618324338 0.01221446163353209 2.3509886e-038
-0.08387925373856792 0.5597590962519846 0.17348785278979634 2.3509886e-038
-0.10362097685168667 0.577904278007107 0.03214588784980626 2.3509886e-038
-0.10281671380361007 0.588697402891413 0.05351729493315467 2.3509886e-038
-0.10120686263968334 0.5947863840261983 0.07516900403762267 2.3509886e-038
-0.09284253795407152 0.5611455120296428 0.09095033802618568 2.3509886e-038
-0.09498792163372419 0.59107007098701 0.11710446586806106 2.3509886e-038
-0.08793799101535016 0.5640498083296861 0.1323280121129828 2.3509886e-038
-0.10755943880867935 0.5780128984705455 -0.008719238456993239 2.3509886e-038
-0.08635091098527584 0.5710381294673358 0.15512272391402215 2.3509886e-038
-0.10755444891523577 0.5921941880605717 0.011924661665262952 2.3509886e-038
-0.0816538241598384 0.5582287104602809 0.17266563439624505 2.3509886e-038
-0.10186210125194428 0.5802588198988431 0.03199848618317313 2.3509886e-038
-0.10000092063920507 0.5851642966736329 0.05290144189076858 2.3509886e-038
-0.09740985871798472 0.5853952638440623 0.07367334929512129 2.3509886e-038
-0.09079604212715683 0.5615205856150436 0.09070145040517827 2.3509886e-038
-0.0910049753237967 0.5798291881397812 0.11454362459707412 2.3509886e-038
-0.08763721555626103 0.5759839621234243 0.13478219827361732 2.3509886e-038
-0.10545709085575714 0.5783962357547972 -0.008974949026667275 2.3509886e-038
-0.08257380888904436 0.5599518827225667 0.1517612345014182 2.3509886e-038
-0.1071502282950883 0.6024303129540104 0.011856265537516298 2.3509886e-038
-0.08042296953705902 0.564280702301331 0.17417083013755358 2.3509886e-038
-0.10279265348096903 0.5983542916391775 0.03270984157842275 2.3509886e-038
-0.09698450623358643 0.5796352984296902 0.05212436806730977 2.3509886e-038
-0.09782529845420909 0.6014518984836359 0.07537797795529763 2.3509886e-038
-0.08720749344175113 0.5521330635870665 0.088881935775254 2.3509886e-038
-0.09018039489223384 0.5879519690018807 0.11582750410324821 2.3509886e-038
-0.0859209087052833 0.5782695882957953 0.13498845945067364 2.3509886e-038
-0.10310183044141302 0.5767855741762731 -0.00918738010196362 2.3509886e-038
-0.08025348983141789 0.5584047930106706 0.15099522154933792 2.3509886e-038
-0.10506240867999536 0.6028029095775134 0.0116021973266206 2.3509886e-038
-0.07951177553699784 0.5722097646727562 0.17626644634201116 2.3509886e-038
-0.10015822450760628 0.5947637694343504 0.032256301769494206 2.3509886e-038
-0.09465155461410629 0.5780240333107272 0.051703719898549425 2.3509886e-038
-0.09386646716787453 0.5900576558228748 0.07365563073744114 2.3509886e-038
-0.08840288777011457 0.5719746758198117 0.09179303298591263 2.3509886e-038
-0.08522843749053888 0.5688944538343975 0.11176430504896417 2.3509886e-038
-0.08513092882283069 0.5863191558047964 0.13655267055670572 2.3509886e-038
-0.1025855441581166 0.5849966927400293 -0.009547016377316947 2.3509886e-038
-0.07733390482258704 0.5510737640686451 0.1487051850073552 2.3509886e-038
-0.09994468118409885 0.5854278840997429 0.011014095566391583 2.3509886e-038
-0.07700650201361053 0.5687658504204074 0.17485821534149065 2.3509886e-038
-0.09679660417719976 0.5872385260674736 0.03158125712099371 2.3509886e-038
-0.09390667295314739 0.5862396383433051 0.05215963983344525 2.3509886e-038
-0.0916152753710259 0.5884319822882526 0.07317474885827521 2.3509886e-038
-0.086711263286608 0.5742702260958147 0.09186355847538841 2.3509886e-038
-0.08552449897255951 0.584776633757921 0.11456853677381354 2.3509886e-038
-0.08336560913571336 0.5885990877856783 0.13675273720060183 2.3509886e-038
-0.10022074742065548 0.5833733684770329 -0.009760825617917482 2.3509886e-038
-0.07803529051029412 0.570548237095816 0.15362692723190413 2.3509886e-038
-0.099894008856556 0.5976090714600182 0.01098450151179651 2.3509886e-038
-0.07352615813974661 0.5577223473368925 0.17112471705556348 2.3509886e-038
-0.09444246567406608 0.5856120590859007 0.03122805259809603 2.3509886e-038
-0.09248948194181064 0.590520559711617 0.052260260764672786 2.3509886e-038
-0.08807988801947694 0.5789642541431377 0.07171046543853495 2.3509886e-038
-0.08442860315991851 0.5726521885607607 0.09130891015849596 2.3509886e-038
-0.08182815073106373 0.5734551555959709 0.11204211034607597 2.3509886e-038
-0.07838624822198412 0.5677025966792979 0.13158029323680945 2.3509886e-038
-0.0965413607807091 0.5738527683062862 -0.00983800365277162 2.3509886e-038
-0.0742640408628675 0.5574712916810901 0.149782059316996 2.3509886e-038
-0.09750010299770634 0.5959826692752723 0.010696705091161267 2.3509886e-038
-0.07255864698704406 0.5656399060803354 0.17321313269987737 2.3509886e-038
-0.09147845954159717 0.5800303512097279 0.030667625947773523 2.3509886e-038
-0.08833053056577547 0.5770731518117516 0.050796970943406614 2.3509886e-038
-0.08811247149976875 0.593042687486441 0.07316128432202379 2.3509886e-038
-0.08018890470066142 0.5573359737875319 0.08858002997661196 2.3509886e-038
-0.08172987924887826 0.5873985332022197 0.11445206045780881 2.3509886e-038
-0.07745201650357358 0.5757555986789304 0.13312660633117432 2.3509886e-038
-0.09520360974100842 0.578125691810246 -0.010149590110137496 2.3509886e-038
-0.0740644196724915 0.5712072705490046 0.15314294435142212 2.3509886e-038
-0.09733079093035582 0.608168824449241 0.010652422938384462 2.3509886e-038
-0.07130042045846563 0.5716600599726087 0.17471444644958856 2.3509886e-038
-0.09068453024392498 0.5882528991969543 0.030836296867972547 2.3509886e-038
-0.08603388503495213 0.5754268236264911 0.05038030212882577 2.3509886e-038
-0.085769084834279 0.5914109954059462 0.07266884052365441 2.3509886e-038
-0.07880239628573207 0.5615617134924178 0.08896392666875247 2.3509886e-038
-0.07863313553103504 0.5799428054940502 0.11269047986907166 2.3509886e-038
-0.07671613186548057 0.5857434666070473 0.1351120288778408 2.3509886e-038
-0.09224700869419358 0.5725248332842887 -0.0102873822446259 2.3509886e-038
-0.06941670773923045 0.5504296690779326 0.14725659172098715 2.3509886e-038
-0.09398655671421657 0.6006041810162546 0.010260359648118904 2.3509886e-038
-0.06931063560632456 0.5719788142097414 0.17447174784804398 2.3509886e-038
-0.08953735117230924 0.5945020050107396 0.030895408610642605 2.3509886e-038
-0.0846132118686008 0.5796863753977791 0.050480156555186353 2.3509886e-038
-0.0867757248792784 0.6133606492216617 0.07506491255168829 2.3509886e-038
-0.07926211883574896 0.5794891857378713 0.09150832096602943 2.3509886e-038
-0.07738931392623427 0.5861017933094504 0.11357660791124391 2.3509886e-038
-0.07615848639437697 0.5976690782385902 0.13753411799256032 2.3509886e-038
-0.09088648070152991 0.5767870272902016 -0.010601966630978878 2.3509886e-038
-0.06961874493565387 0.568000520799662 0.15163342968349275 2.3509886e-038
-0.09190527772815588 0.6009304158940261 0.010006390671426965 2.3509886e-038
-0.06709595193078971 0.5703891853619112 0.17364995342761413 2.3509886e-038
-0.0877665946948068 0.5967979396686778 0.030745623124399803 2.3509886e-038
-0.08372612141601429 0.5878888228555254 0.05091817694213206 2.3509886e-038
-0.08003451008775686 0.5802516079500882 0.07072912953623946 2.3509886e-038
-0.07672764671215404 0.5758820971388047 0.09064602731398708 2.3509886e-038
-0.07309965050951286 0.5688812496412871 0.10993945872812244 2.3509886e-038
-0.0721625779768266 0.5825065023950272 0.1337262698910778 2.3509886e-038
-0.08980208929604377 0.583022755128028 -0.010957257817607938 2.3509886e-038
-0.0671857698193305 0.5644636324350044 0.1503692896750154 2.3509886e-038
-0.0901183113823534 0.6032271452733273 0.009784245365685382 2.3509886e-038
-0.06380844320731743 0.5592790562542281 0.16993942481348834 2.3509886e-038
-0.08409626994066147 0.5852331768646348 0.02989953443325031 2.3509886e-038
-0.08288651610139702 0.5960770100784125 0.05136188851192494 2.3509886e-038
-0.07891571168431583 0.586444479548578 0.07121240000747103 2.3509886e-038
-0.07431868734693314 0.5722490657742617 0.08979896028003231 2.3509886e-038
-0.07512438357492421 0.600350630182575 0.1157216439528374 2.3509886e-038
-0.06977195246869647 0.5789231263442434 0.13260432192906318 2.3509886e-038
-0.08788379883653702 0.5833105237930345 -0.011191537189799497 2.3509886e-038
-0.067097873055076 0.5801103152713197 0.1542269665410989 2.3509886e-038
-0.08842141414353458 0.6055031059541363 0.009572987320409747 2.3509886e-038
-0.062380600830949845 0.5633619582882401 0.17086806220978734 2.3509886e-038
-0.08373069233165528 0.5974027426777695 0.03025271161070415 2.3509886e-038
-0.0794806369450555 0.586508713669897 0.050263096924383105 2.3509886e-038
-0.07703599482047976 0.588728784754386 0.07118937741967303 2.3509886e-038
-0.07134058134669774 0.5646985541904577 0.0883293683254199 2.3509886e-038
-0.07019260386045423 0.5772547797653251 0.11096805035265705 2.3509886e-038
-0.06720606894782738 0.5753584752297938 0.13146085320245662 2.3509886e-038
-0.08401820142084937 0.571750895318254 -0.011217825653919253 2.3509886e-038
-0.06325759600850375 0.565044819021362 0.14988942003401845 2.3509886e-038
-0.08688740073569545 0.6097694135416468 0.00937750280789866 2.3509886e-038
-0.061236305911477745 0.5712651409409322 0.17293427196815386 2.3509886e-038
-0.08101571629016319 0.5937584773415561 0.029788319898891115 2.3509886e-038
-0.07692459219445363 0.582850559479102 0.04967764162871467 2.3509886e-038
-0.07825320439437455 0.6146323536327912 0.07402395893252128 2.3509886e-038
-0.06928143456084196 0.5649941630897042 0.08807768140195577 2.3509886e-038
-0.07095124166890374 0.6009561438826113 0.11521166506080066 2.3509886e-038
-0.06674252792224206 0.5892117916170595 0.13430897674491876 2.3509886e-038
-0.08175422402317511 0.570054254780254 -0.011420224600501648 2.3509886e-038
-0.061808026263499016 0.5691568628697976 0.150679275576579 2.3509886e-038
-0.08312295385502952 0.5981861606667211 0.008941555055605671 2.3509886e-038
-0.06003788685457129 0.579168954388686 0.17499374112832183 2.3509886e-038
-0.08011427434118518 0.6019544791354396 0.029943202527500185 2.3509886e-038
-0.07474956591431223 0.5811440800193333 0.0492751781868761 2.3509886e-038
-0.07207321892276469 0.581411674761672 0.06975629533820278 2.3509886e-038
-0.06765158719598255 0.5672177818643785 0.08815478568044463 2.3509886e-038
-0.06516091876457542 0.568048466241446 0.10862338106178693 2.3509886e-038
-0.06522291044410067 0.5933613366553139 0.13495305490474824 2.3509886e-038
-0.08126545684382502 0.5802167391178 -0.011851844059285403 2.3509886e-038
-0.05891491904366861 0.5598002356742655 0.14790788918905107 2.3509886e-038
-0.08061633711518834 0.5944967044664276 0.008643108829899672 2.3509886e-038
-0.05774057210743949 0.5756228842792711 0.1736098140975334 2.3509886e-038
-0.07710359598315664 0.5943029952801833 0.029309882716004827 2.3509886e-038
-0.07446531835077802 0.5952641003659799 0.050195918979641 2.3509886e-038
-0.07134535329795119 0.5915331036242928 0.0707001291142167 2.3509886e-038
-0.06691839008029912 0.5772912269302034 0.08944706844083838 2.3509886e-038
-0.06340439530470218 0.5702705169736224 0.10875438020495706 2.3509886e-038
-0.06388345852201285 0.59944781724107 0.1360340118798819 2.3509886e-038
-0.08043985272914847 0.5884006700549034 -0.012250391511671593 2.3509886e-038
-0.05853387191502504 0.5754616509432003 0.1517293130087734 2.3509886e-038
-0.0790800968426178 0.598741214762206 0.008447011184388217 2.3509886e-038
-0.05499889277056405 0.5682664654356122 0.1710684554389687 2.3509886e-038
-0.07604373307881379 0.6025068051637814 0.02944517152397979 2.3509886e-038
-0.0728815690920441 0.5994970391604237 0.050275065916503825 2.3509886e-038
-0.06859937018623807 0.5858890098202757 0.0697443780521479 2.3509886e-038
-0.0651345394319924 0.5795225456023997 0.08950512697383825 2.3509886e-038
-0.06478852529503024 0.6017955902136761 0.11445770617325912 2.3509886e-038
-0.06119956666283577 0.5939014704490752 0.1344607092897403 2.3509886e-038
-0.07602633700150235 0.5708319499957658 -0.012121024475596223 2.3509886e-038
-0.05634301687248017 0.5738007246378349 0.15097764091479937 2.3509886e-038
-0.078025421133193 0.6069490820010238 0.00830158192994838 2.3509886e-038
-0.05337691279937934 0.5723427724459158 0.17197284735762391 2.3509886e-038
-0.07298178061710414 0.5948478669606413 0.02880535615823726 2.3509886e-038
-0.06963374430027927 0.5898703216020842 0.04919504230052535 2.3509886e-038
-0.06947958830238421 0.6118095974275891 0.07253728609919441 2.3509886e-038
-0.06183824497476939 0.5679909066109041 0.087443281151105 2.3509886e-038
-0.06127272750674792 0.588382369333942 0.11160618749598511 2.3509886e-038
-0.05836185527268187 0.586400907059278 0.132453525015426 2.3509886e-038
-0.074563669513866 0.5750524544006247 -0.012448963830058161 2.3509886e-038
-0.053617694824872775 0.5663519341409301 0.14870996343990345 2.3509886e-038
-0.0769146805188517 0.6151567182042174 0.008149173235580728 2.3509886e-038
-0.052070082099267195 0.5802329504046274 0.1740186153800839 2.3509886e-038
-0.07233795720388939 0.6070115802729016 0.029123817710681073 2.3509886e-038
-0.06736074547612322 0.5881488410661913 0.04878015948428538 2.3509886e-038
-0.06573154852273477 0.5982695737784327 0.07063240909135268 2.3509886e-038
-0.06069449390395282 0.5761042837470386 0.08840861123521437 2.3509886e-038
-0.058047870608729346 0.5769054410740074 0.10913603793993548 2.3509886e-038
-0.05659376184461798 0.5905543469758532 0.13306674242567068 2.3509886e-038
-0.07072317662227412 0.5614272403826837 -0.012398479419567253 2.3509886e-038
-0.05207523539353487 0.5723921576888095 0.14997141766677258 2.3509886e-038
-0.07333581436940054 0.6035114938387389 0.007735362277318436 2.3509886e-038
-0.050050768087669645 0.5804847809025107 0.17377121044865257 2.3509886e-038
-0.06966995147905869 0.6033146377596256 0.028664459958232573 2.3509886e-038
-0.06554061699050692 0.590380674306207 0.04869355360560236 2.3509886e-038
-0.06470553518979555 0.6084006794568455 0.07153929376179663 2.3509886e-038
-0.0589939531222424 0.5802953418783976 0.08875289454154434 2.3509886e-038
-0.05794316598365537 0.5967142995302995 0.11258155932710659 2.3509886e-038
-0.055976085778227935 0.6063515338346764 0.13631024321651214 2.3509886e-038
-0.06999413216829531 0.5715867681756103 -0.012860046866040004 2.3509886e-038
-0.049747041384734986 0.5687775749850914 0.14871911910305552 2.3509886e-038
-0.07077593960702724 0.5997929632795758 0.00742984032987073 2.3509886e-038
-0.048030518947376616 0.5807294431216956 0.17352357864493523 2.3509886e-038
-0.06768295918870296 0.6035522828800942 0.028420858523702894 2.3509886e-038
-0.06391890707183986 0.5945890129410445 0.048767604933191294 2.3509886e-038
-0.06076507790099284 0.5908666086740444 0.06919755123409714 2.3509886e-038
-0.05688612938525822 0.5785547203807857 0.0882181134742217 2.3509886e-038
-0.05348871051785914 0.5715157545375879 0.1075396507276127 2.3509886e-038
-0.05241672048031701 0.5890905009396422 0.13213976317264564 2.3509886e-038
-0.06858669347393029 0.5757795969078782 -0.013181540087378749 2.3509886e-038
-0.04770542703494099 0.5670701564819375 0.14798530208332372 2.3509886e-038
-0.06915266871989648 0.604011474175755 0.0072225116431821786 2.3509886e-038
-0.04479867258247783 0.5656783782754926 0.16871584459335187 2.3509886e-038
-0.0642960282738407 0.5918782191253034 0.027608350930594654 2.3509886e-038
-0.06278584202081575 0.6027469454897905 0.04917432770084913 2.3509886e-038
-0.059603872561343335 0.598999238037256 0.06988111834067305 2.3509886e-038
-0.05506388740411547 0.5807549301759833 0.08827091495963849 2.3509886e-038
-0.05513680798518522 0.61089241918085 0.11465812899712693 2.3509886e-038
-0.050701455891808606 0.593215351850278 0.1327591139819162 2.3509886e-038
-0.06544467430289094 0.5660768010208478 -0.013194653929812547 2.3509886e-038
-0.04744409006382519 0.5885210885422664 0.15327114367619388 2.3509886e-038
-0.06804823429767382 0.6121891241627697 0.007070424508998136 2.3509886e-038
-0.04408876330729003 0.5811861726701107 0.17304010027895605 2.3509886e-038
-0.0627652642446434 0.5960716305960098 0.027552859627443388 2.3509886e-038
-0.0598964565429492 0.5950479085833437 0.048274118142592914 2.3509886e-038
-0.05752513730030509 0.5992320973271558 0.06962602647049232 2.3509886e-038
-0.051526670737386954 0.5632445368923945 0.08534998130845475 2.3509886e-038
-0.0513152178184717 0.5915415550155406 0.11073107271632296 2.3509886e-038
-0.0485826289335792 0.5914875419795853 0.13208420847034122 2.3509886e-038
-0.06313618953694597 0.5623096695514694 -0.01332901449507385 2.3509886e-038
-0.044156956168768635 0.57136413499957 0.14851677124727258 2.3509886e-038
-0.06635526720335508 0.6164008941765465 0.006854320664287301 2.3509886e-038
-0.04248128914760704 0.5871474866989125 0.17449703096041985 2.3509886e-038
-0.06110353220949938 0.6002726072953548 0.02748118799253163 2.3509886e-038
-0.057254259319499096 0.5893198579784223 0.04754054218873199 2.3509886e-038
-0.056832876789785464 0.6132952023897024 0.07098640817757326 2.3509886e-038
-0.05182422091665412 0.5890680356587705 0.08897851202039264 2.3509886e-038
-0.051217449894148115 0.61527718290353 0.11486862794225777 2.3509886e-038
-0.04713880474272436 0.5994947839669773 0.13356640154914762 2.3509886e-038
-0.0607565250369963 0.5585437939113457 -0.013472215311572971 2.3509886e-038
-0.042169715473286296 0.5715776086313942 0.14827276628316172 2.3509886e-038
-0.06380524834307894 0.6126516539136214 0.0065495499176796215 2.3509886e-038
-0.04017454313610744 0.5835397398370783 0.17311097950310217 2.3509886e-038
-0.06019524404257107 0.6124227352404362 0.027766529651878556 2.3509886e-038
-0.05558206148315345 0.5935049503790516 0.047607948600858874 2.3509886e-038
-0.05301296204641204 0.5957177247779145 0.06865900079258357 2.3509886e-038
-0.04944578328192134 0.5853405513447286 0.08813377960888072 2.3509886e-038
-0.04642276711843005 0.5821770782145143 0.10840129182336292 2.3509886e-038
-0.04553448319034231 0.6075111834444962 0.13502874819956706 2.3509886e-038
-0.05956164153581922 0.5667086952579504 -0.01391700802598439 2.3509886e-038
-0.04021774130239242 0.5737259703961926 0.14851641140576816 2.3509886e-038
-0.06088149817138186 0.604912433481513 0.006207121207281823 2.3509886e-038
-0.039269354293912206 0.600975269698672 0.17796234158580254 2.3509886e-038
-0.05646052401552304 0.5967370874614809 0.02677854488831318 2.3509886e-038
-0.05388146401740829 0.5976857246818442 0.0476717581007986 2.3509886e-038
-0.05077638760690034 0.5939474786400034 0.06817770925244847 2.3509886e-038
-0.04778970627282736 0.5914710372685731 0.08875914049496594 2.3509886e-038
-0.046194161724781024 0.605911552338844 0.11252255512370396 2.3509886e-038
-0.0430052389941705 0.6018799393643304 0.13347338149983196 2.3509886e-038
-0.05820545093744997 0.572872952779565 -0.014307224146701436 2.3509886e-038
-0.038737198362169156 0.5816554384110884 0.15026811344723146 2.3509886e-038
-0.05917246700716197 0.6091032729524324 0.005988694725846542 2.3509886e-038
-0.0351651723267343 0.568636187032858 0.16808433613404383 2.3509886e-038
-0.054495349511354374 0.5969305571286158 0.026536977507707615 2.3509886e-038
-0.052497008392434874 0.6058345737156106 0.04804705734834082 2.3509886e-038
-0.04887761723671144 0.5961296295311599 0.0681507408438838 2.3509886e-038
-0.04583878567743749 0.5916613487416462 0.08851929821084595 2.3509886e-038
-0.04280503941507732 0.5884624693074837 0.10899394781817878 2.3509886e-038
-0.041017727890597794 0.6020727821787887 0.13322902484956578 2.3509886e-038
-0.0555387432076149 0.5650963622759055 -0.014336986832934842 2.3509886e-038
-0.036937703105947184 0.5837742232159051 0.15053026235461409 2.3509886e-038
-0.05706205805822501 0.6093070977104635 0.005729213741068504 2.3509886e-038
-0.03374511705289082 0.5784031127196595 0.17066663561790274 2.3509886e-038
-0.05277561135634329 0.6011079962697068 0.026457724642346254 2.3509886e-038
-0.05006523299966817 0.6020594444277656 0.04747526123710134 2.3509886e-038
-0.048315117941441776 0.6141450668743607 0.06993954419633353 2.3509886e-038
-0.04305467438025384 0.5819904937667679 0.08679551395595222 2.3509886e-038
-0.04279882594829637 0.6180868204008758 0.11417964138404543 2.3509886e-038
-0.03829511246269762 0.5925231468602583 0.1308199759833665 2.3509886e-038
-0.05301593753354231 0.5593078742434189 -0.014423689114083954 2.3509886e-038
-0.034676290306774216 0.580096110723006 0.14928529481523306 2.3509886e-038
-0.05602859412309713 0.6214545596290604 0.005576799444531544 2.3509886e-038
-0.0317323531146457 0.5785900393332084 0.17041904525805607 2.3509886e-038
-0.05153114859962313 0.6112537303645061 0.02663515485244434 2.3509886e-038
-0.04750214389296159 0.5962867823397198 0.046750845681126 2.3509886e-038
-0.04573697746226513 0.608393570443983 0.06900302409734661 2.3509886e-038
-0.040894929614412684 0.5801999470890905 0.08625350211719437 2.3509886e-038
-0.038844815614955924 0.5908014200114177 0.10885250912382657 2.3509886e-038
-0.03707001919758246 0.6063564464287243 0.13357301452385084 2.3509886e-038
-0.04998855916142597 0.5475356203687467 -0.01434894584656414 2.3509886e-038
-0.031787846965219746 0.5648030128214698 0.14506270260156395 2.3509886e-038
-0.053184806952893904 0.6136774235584012 0.005243736042678523 2.3509886e-038
-0.030407809810511305 0.5921850578582706 0.17411563806173108 2.3509886e-038
-0.04925134189153402 0.609448314631179 0.026288441711567467 2.3509886e-038
-0.046039916311122836 0.6044207011890615 0.04711623668981786 2.3509886e-038
-0.04362578173014742 0.6085780308196552 0.06874314669060855 2.3509886e-038
-0.03967393834258803 0.5922196044287074 0.08776073942484003 2.3509886e-038
-0.03679249341806429 0.590979279143899 0.1085998562830438 2.3509886e-038
-0.0355244294488245 0.6162900780715155 0.1354568398350533 2.3509886e-038
-0.048442451883915605 0.5516825143561486 -0.014688403345184467 2.3509886e-038
-0.030232181065855485 0.5727114477153398 0.14680471695200747 2.3509886e-038
-0.05039559721976264 0.6058879305541534 0.004917274803935867 2.3509886e-038
-0.027980202747304006 0.5846936642610101 0.1716112824037727 2.3509886e-038
-0.04683074874704882 0.6056420689387493 0.02585818745062242 2.3509886e-038
-0.04408813473673362 0.6065855833913544 0.047012219330558935 2.3509886e-038
-0.04043216370560651 0.5928917512675365 0.06669850579750508 2.3509886e-038
-0.037868550416556235 0.596340495049553 0.08809089369197412 2.3509886e-038
-0.034393339889958074 0.5852579829325874 0.10726713717431174 2.3509886e-038
-0.03306549298966349 0.6106152349635083 0.13390955025134332 2.3509886e-038
-0.046532176668358016 0.5518405917063711 -0.0149236845533912 2.3509886e-038
-0.028622004818804198 0.5806175240964397 0.1485399265973389 2.3509886e-038
-0.048614327828497256 0.6100481535466182 0.004689386897505124 2.3509886e-038
-0.02569048118587819 0.5791082103152666 0.16967517182230546 2.3509886e-038
-0.043848546279162154 0.5938548739545318 0.025094301005064643 2.3509886e-038
-0.042535063557639474 0.6147122841887597 0.04736619808358823 2.3509886e-038
-0.039529967288581325 0.6109081296855788 0.06844505489453052 2.3509886e-038
-0.03520549273190038 0.5866300525461362 0.08638157080910197 2.3509886e-038
-0.03377187535359111 0.6109582666210074 0.1116851388271963 2.3509886e-038
-0.030251126637690168 0.5971240064011962 0.13065910735897707 2.3509886e-038
-0.044138118889913286 0.5460137483702038 -0.014994954608404262 2.3509886e-038
-0.027134923352198442 0.5923927063597403 0.15125695193969885 2.3509886e-038
-0.04650084823544079 0.6102148015232278 0.004428950694502718 2.3509886e-038
-0.023518594558641664 0.5754306285564228 0.1683048259621619 2.3509886e-038
-0.042631491059385046 0.6059739956303779 0.02534074116063991 2.3509886e-038
-0.04014167154999518 0.6108965267182518 0.04679855216226607 2.3509886e-038
-0.03631696739324505 0.5932148272280836 0.0661913838161565 2.3509886e-038
-0.03283368741933404 0.5808585426022481 0.08526049936158447 2.3509886e-038
-0.030937240325051435 0.5973645089322706 0.10891560218118826 2.3509886e-038
-0.02835985984250186 0.6011852707509804 0.13125557591506792 2.3509886e-038
-0.04147657903820259 0.5361904602929667 -0.01495013608005033 2.3509886e-038
-0.024583203635855227 0.5809296411588803 0.1480421424246559 2.3509886e-038
-0.04496704601109272 0.6183527848769519 0.004222821717759933 2.3509886e-038
-0.0219466419229839 0.5870927539875277 0.17141914386298612 2.3509886e-038
-0.04079768651166865 0.6101165040883146 0.025246754253973602 2.3509886e-038
-0.03752760101821856 0.6030903553454233 0.045930947993297194 2.3509886e-038
-0.036550073358126156 0.6330555366491567 0.07034808398813738 2.3509886e-038
-0.030712282665687457 0.579029240510012 0.08472266118515248 2.3509886e-038
-0.02886209326349687 0.597514973363078 0.10865968666813 2.3509886e-038
-0.02669690866122093 0.6110983860777403 0.13312448028881674 2.3509886e-038
-0.04020922759207918 0.5442994520523099 -0.015404806836764338 2.3509886e-038
-0.022863725859920248 0.588822713184181 0.149763549922602 2.3509886e-038
-0.04227227913018547 0.6105258725319177 0.00390753533679211 2.3509886e-038
-0.02016406026304518 0.5949153522683114 0.1734046517874835 2.3509886e-038
-0.038682989038833826 0.6102650292872864 0.02498588712264123 2.3509886e-038
-0.03555309353127961 0.6052273800019367 0.045823673140528653 2.3509886e-038
-0.03241506363066682 0.5974789344917066 0.06612291156653649 2.3509886e-038
-0.029387743294099294 0.5930053798696114 0.08649282011142387 2.3509886e-038
-0.027491504460187194 0.6133859561034473 0.11125633733197515 2.3509886e-038
-0.024337431400574983 0.6053858418384319 0.13158897138277958 2.3509886e-038
-0.038043858298964145 0.5404403644990197 -0.015522779167899459 2.3509886e-038
-0.02040528704756836 0.5773385641141304 0.1465600234298618 2.3509886e-038
-0.03963236213731841 0.6026876400081563 0.003598901005401384 2.3509886e-038
-0.017918861656247898 0.5892977132660028 0.1714735855706545 2.3509886e-038
-0.03667349465642017 0.6103991680310887 0.02473788987634977 2.3509886e-038
-0.033338330554783774 0.6013771587693338 0.045277728610635004 2.3509886e-038
-0.03145695838909637 0.6174634936229775 0.06806851901058547 2.3509886e-038
-0.027706306887806592 0.599065558176152 0.08711393388691058 2.3509886e-038
-0.024487819104883596 0.5899216658561919 0.1067370145435535 2.3509886e-038
-0.02277102580549717 0.6172361195211022 0.13388436726753428 2.3509886e-038
-0.03640002276683668 0.542550865211619 -0.015800297429395413 2.3509886e-038
-0.01862214075428517 0.5813381587588441 0.14730663464032517 2.3509886e-038
-0.03814755324863037 0.6108005073524649 0.0033984807303753407 2.3509886e-038
-0.016075054689301788 0.5932635078689538 0.1723486693281478 2.3509886e-038
-0.03433191990466844 0.6065427567531092 0.024316695473680844 2.3509886e-038
-0.03187377112555767 0.6134589705499756 0.04591467432654868 2.3509886e-038
-0.02856048323073665 0.601711281786977 0.06605983121339142 2.3509886e-038
-0.025541894657606673 0.59721789974858 0.08657046831851714 2.3509886e-038
-0.02326152544214044 0.6116840591869911 0.11038840061089214 2.3509886e-038
-0.02016884475129127 0.6036930923422682 0.13065953058704266 2.3509886e-038
-0.034267665098050154 0.5386765851525854 -0.01591439218186315 2.3509886e-038
-0.01715397893804857 0.6008446235805284 0.15195888766718074 2.3509886e-038
-0.03673812567840537 0.62290943240185 0.0031986867786516528 2.3509886e-038
-0.013738764910753376 0.5818676725053145 0.16875210777135113 2.3509886e-038
-0.032229673566619266 0.6066684351522484 0.024057025587067925 2.3509886e-038
-0.029649697125492203 0.6115932831739325 0.04550365301582257 2.3509886e-038
-0.0276958449117492 0.6296425299413508 0.06884228430783512 2.3509886e-038
-0.023313214436291585 0.5933841243166428 0.08574273344764075 2.3509886e-038
-0.0207969821447182 0.6019722827216577 0.10835539902846861 2.3509886e-038
-0.018012318089625723 0.6018614887853855 0.12997833361673342 2.3509886e-038
-0.032402660088569374 0.5387851465893504 -0.016144803201398293 2.3509886e-038
-0.014967355012004524 0.5970887440753911 0.1507220431828482 2.3509886e-038
-0.03435865356890852 0.6190404071984779 0.0029132944970681647 2.3509886e-038
-0.011907524914092388 0.5915881484181216 0.17128253766071067 2.3509886e-038
-0.03032515418827328 0.610778705480664 0.02395374183088199 2.3509886e-038
-0.026811488935550687 0.5957714970022795 0.04406262725896992 2.3509886e-038
-0.024625909385859762 0.6079113193082883 0.06619281577629457 2.3509886e-038
-0.02096990908615534 0.5855848529203473 0.08434830244307756 2.3509886e-038
-0.01876716111122409 0.6040549090573831 0.10845022420671774 2.3509886e-038
-0.016075675557255503 0.6078396064491395 0.13098330464705038 2.3509886e-038
-0.030197924139063276 0.5328995207033131 -0.016193419876878785 2.3509886e-038
-0.012430722748330736 0.5758732410352057 0.1450916465722255 2.3509886e-038
-0.03200630495425308 0.6151623685393524 0.0026311366867592233 2.3509886e-038
-0.009945183073717667 0.5974628679914563 0.1726939730695301 2.3509886e-038
-0.028392599232250126 0.6148831257477411 0.02384688003379725 2.3509886e-038
-0.025407466680919394 0.611822951518723 0.044979282747057064 2.3509886e-038
-0.022884631938420136 0.6179563504622084 0.06700936105816907 2.3509886e-038
-0.01925683113256299 0.5955837316467383 0.0855175051055655 2.3509886e-038
-0.016343311992315035 0.5923552937622767 0.10607633565790897 2.3509886e-038
-0.014008096302404821 0.6099027936244649 0.13114241632232765 2.3509886e-038
-0.028565282158588723 0.5369863543574235 -0.016544571773720367 2.3509886e-038
-0.01074429863913795 0.5934290881263863 0.14923324972873547 2.3509886e-038
-0.029293412523883178 0.6032848425633788 0.0023215098585365433 2.3509886e-038
-0.008018213690863835 0.6090967274998963 0.17576366129812665 2.3509886e-038
-0.026261474191592304 0.614988008485536 0.02358329585255018 2.3509886e-038
-0.02290662618772235 0.6019603833812085 0.04398857941825812 2.3509886e-038
-0.02007365974998096 0.5981874543853314 0.06459804745261455 2.3509886e-038
-0.017417751536008108 0.6035996490631591 0.08639480486644446 2.3509886e-038
-0.01447558135940269 0.6003270638954326 0.10722806826075709 2.3509886e-038
-0.01204099113214524 0.6178247339811274 0.1325581764061743 2.3509886e-038
-0.026507579236046658 0.5330817806562284 -0.016649843350277985 2.3509886e-038
-0.008623983026788073 0.5896477021252597 0.1480042485541248 2.3509886e-038
-0.02792423949574757 0.6193672526202316 0.0021176230199610527 2.3509886e-038
-0.005675693428806777 0.5861354296630025 0.16885789504560744 2.3509886e-038
-0.023816601011453803 0.6070972511829994 0.02301669824767108 2.3509886e-038
-0.02164651082208774 0.6259777095848892 0.04546790936925539 2.3509886e-038
-0.018835313208673293 0.6261082173099902 0.06733383023739917 2.3509886e-038
-0.015272128424415193 0.6017142778302527 0.08585308857573107 2.3509886e-038
-0.01239050621574897 0.6004197785140862 0.1069700270323588 2.3509886e-038
-0.009549391924560224 0.5964099301056592 0.12768732386264228 2.3509886e-038
-0.024569601010647923 0.5311662724299804 -0.016815044595751255 2.3509886e-038
-0.006595360314249316 0.5916776936438732 0.14823651563091017 2.3509886e-038
-0.025945062114407752 0.6234576183941085 0.0018640292610400348 2.3509886e-038
-0.003767577658377208 0.6073668819577277 0.17468634780457126 2.3509886e-038
-0.02171259849482235 0.607185990118128 0.0227562403756615 2.3509886e-038
-0.018607398309681777 0.5981545834806825 0.04318392513039017 2.3509886e-038
-0.016292715069990138 0.6122831197279782 0.06557456596128378 2.3509886e-038
-0.012879765282121397 0.5879431978712228 0.08362356027520451 2.3509886e-038
-0.010372712419557673 0.604442897780942 0.1074115850774226 2.3509886e-038
-0.007672923575488294 0.6121401605488792 0.1307731611371255 2.3509886e-038
-0.022388887836955196 0.5232523308338471 -0.01678645035231662 2.3509886e-038
-0.004612299280224552 0.601461777966621 0.1504076924249036 2.3509886e-038
-0.023785498537907485 0.6235444915268017 0.001596628508980907 2.3509886e-038
-0.0016178835790568447 0.59399530503418 0.17056087419056326 2.3509886e-038
-0.01993070746949166 0.6172551922025389 0.02286561132703952 2.3509886e-038
-0.016698633351530018 0.604216332185154 0.043356311611127005 2.3509886e-038
-0.014904485274849194 0.6441750753072846 0.06870426543192062 2.3509886e-038
-0.010911854970386242 0.5919800218115916 0.08393219402918348 2.3509886e-038
-0.008219339283198207 0.6005831200882844 0.10645347756819423 2.3509886e-038
-0.00547475123674393 0.6043954721308482 0.1288417989158943 2.3509886e-038
-0.02010612074984841 0.5113350411696714 -0.01662128401391895 2.3509886e-038
-0.0024559517527509567 0.5860153523786227 0.14627383988733733 2.3509886e-038
-0.021209726788573913 0.6116310088734954 0.0013035099916560069 2.3509886e-038
4.530475823379121E-4 0.5998384595054681 0.17195830995568218 2.3509886e-038
-0.01802176742645839 0.6253216725545473 0.022893122443116268 2.3509886e-038
-0.014796240053669918 0.6122666047247309 0.043665641909020975 2.3509886e-038
-0.012043897437695988 0.6124375722668434 0.06504821647556053 2.3509886e-038
-0.009034564317006055 0.6039309728181184 0.08535669361138093 2.3509886e-038
-0.006113357517558149 0.5986845407791264 0.10584682288839434 2.3509886e-038
-0.0035054334638537354 0.6279406670684259 0.1335749678967071 2.3509886e-038
-0.018693987568174836 0.5213825394972947 -0.017169581365171632 2.3509886e-038
-4.253250498776895E-4 0.5957866862636761 0.14843890096902868 2.3509886e-038
-0.019091109382644383 0.6117013094827123 0.0010409491791413 2.3509886e-038
0.0025236430911738383 0.5960617546596662 0.17059902588530662 2.3509886e-038
-0.015500028903489144 0.6114037847532463 0.022118512699436627 2.3509886e-038
-0.012673179585065864 0.61233292861255 0.0434024668903632 2.3509886e-038
-0.01008012116701451 0.6224468162102068 0.0658365219253763 2.3509886e-038
-0.007006447995176884 0.6099363364573899 0.0859338359361898 2.3509886e-038
-0.004073750479718974 0.6046563324654964 0.1066310212132362 2.3509886e-038
-0.001310978015034825 0.6221372899488362 0.132058609375938 2.3509886e-038
-0.016953739960108433 0.5234346158445826 -0.01745999984067003 2.3509886e-038
0.0016355778866010973 0.5919667336567078 0.1472166986872797 2.3509886e-038
-0.017305085587341645 0.623759542927965 7.935094792709142E-4 2.3509886e-038
0.004567603288370914 0.5922769829385927 0.16924296204084266 2.3509886e-038
-0.013381168494194545 0.6114632432995875 0.02185575451042246 2.3509886e-038
-0.010687448096078633 0.620370883745949 0.04370123655476596 2.3509886e-038
-0.007870070394171202 0.6185285752381774 0.06514974335703262 2.3509886e-038
-0.004873345982627453 0.6080134033344253 0.08539309124604377 2.3509886e-038
-0.0019866323979662592 0.6086522027441984 0.10706353987014658 2.3509886e-038
8.429337322833075E-4 0.616325270076713 0.13054716295278945 2.3509886e-038
-0.01467925557988739 0.5074983760588712 -0.017144773313022263 2.3509886e-038
0.0037301213236118347 0.5978441036282712 0.1484069401106114 2.3509886e-038
-0.015144592499892862 0.6238159944045413 5.255240896255391E-4 2.3509886e-038
0.006628200785509464 0.5923304520675646 0.16898736186240937 2.3509886e-038
-0.011372507068676763 0.617510550519515 0.02180455006720395 2.3509886e-038
-0.008453913624950155 0.6144381535997825 0.04301536006979481 2.3509886e-038
-0.005797744878373978 0.6265362351480136 0.06571801007196021 2.3509886e-038
-0.0027088263878354 0.5961794488494394 0.08346742514070363 2.3509886e-038
1.292609942830092E-4 0.6185509998751384 0.10852941924626688 2.3509886e-038
0.0029372936074291423 0.60659103408909 0.12821343458580914 2.3509886e-038
-0.01292241628673882 0.5075387674573154 -0.017362774878372483 2.3509886e-038
0.005733343172641819 0.590126652981441 0.14622498052232735 2.3509886e-038
-0.013067092145606224 0.627863993269013 2.5904173354732163E-4 2.3509886e-038
0.008858053458274895 0.6039165250203207 0.17201862209530455 2.3509886e-038
-0.009322119155805053 0.623551281714439 0.021748051732042 2.3509886e-038
-0.006323456354926621 0.6144822013623862 0.042750921180475354 2.3509886e-038
-0.003555152710791376 0.6146458768806641 0.06420157929763066 2.3509886e-038
-6.394558298614128E-4 0.5962211493316373 0.08321055180633863 2.3509886e-038
0.0022123073451593422 0.6008631871812223 0.10515966221085765 2.3509886e-038
0.005110277616702824 0.6144599471147298 0.12960275729162804 2.3509886e-038
-0.011121490305932763 0.5055746425780836 -0.017511672428829762 2.3509886e-038
0.007682718803191518 0.5824008406388195 0.1440495927533113 2.3509886e-038
-0.010753603543452922 0.6199067817176274 -1.0804457876616505E-5 2.3509886e-038
0.0110288299922639 0.6078031660861722 0.17285178195953538 2.3509886e-038
-0.0073219247118812 0.6375798790514619 0.021961649766978335 2.3509886e-038
-0.004299344127392191 0.6145171105890331 0.042499575182490784 2.3509886e-038
-0.0014688593620135748 0.634574746421716 0.06600593450923317 2.3509886e-038
0.001444348815608315 0.6021983326313685 0.08378032225129456 2.3509886e-038
0.004167261877285416 0.5969553712608207 0.10422550573013731 2.3509886e-038
0.007429996014723883 0.6301502747045764 0.13263282061185433 2.3509886e-038
-0.009260104834682231 0.49960718061396087 -0.017518821630659924 2.3509886e-038
0.009869371686346384 0.592139974389363 0.14619474127433713 2.3509886e-038
-0.008657648479418134 0.6159391465888971 -2.6243737825796046E-4 2.3509886e-038
0.012955027080295528 0.6039872066254945 0.17150987697184134 2.3509886e-038
-0.0050754451323984096 0.6196204734691202 0.021088635558993124 2.3509886e-038
-0.00221094094795371 0.6265182854589876 0.04305764560185174 2.3509886e-038
6.958560395577407E-4 0.602774696949568 0.062435513218555005 2.3509886e-038
0.003452672947143215 0.6061865312200576 0.08408317724911782 2.3509886e-038
0.006281587661339266 0.6009226431717357 0.10465419024247943 2.3509886e-038
0.009303467773539464 0.6164771655492933 0.1294966605292109 2.3509886e-038
-0.007678049522738484 0.5036247830151367 -0.017864745672201206 2.3509886e-038
0.012019056242180248 0.6018716924324107 0.14834437588264415 2.3509886e-038
-0.006566568352651625 0.6199649953846531 -5.309492045037483E-4 2.3509886e-038
0.014816440898652777 0.5943945400519908 0.16852191191381383 2.3509886e-038
-0.0029093750658005235 0.6156456859250142 0.020687457372486118 2.3509886e-038
-3.879102963269543E-5 0.6305313596361048 0.04306018532183721 2.3509886e-038
0.002815142159698719 0.6326359398960071 0.0652672665350005 2.3509886e-038
0.005556762266780618 0.6062070903203273 0.08382165754324511 2.3509886e-038
0.00861539806863898 0.6186750694642233 0.10747530178324671 2.3509886e-038
0.011227580259992653 0.6047542510823144 0.12676886171271137 2.3509886e-038
-0.005911088071792997 0.501642057131843 -0.01800970336117705 2.3509886e-038
0.014339313118530955 0.6115982634066941 0.15047270482138636 2.3509886e-038
-0.004476394691326685 0.6279835367744947 -8.081571822924211E-4 2.3509886e-038
0.016938746870889337 0.5963358618383067 0.16880941012330047 2.3509886e-038
-7.885287467120916E-4 0.6256554687263531 0.020753733076853083 2.3509886e-038
0.002065797583865575 0.6066014154779878 0.04116349263784527 2.3509886e-038
0.004958624502205244 0.6127563372353705 0.06293730619808405 2.3509886e-038
0.0076107482724089015 0.6022580888702795 0.08301388565655704 2.3509886e-038
0.010866901113526423 0.6245988096802477 0.10823239815763619 2.3509886e-038
0.01373839408263633 0.6184668650127425 0.1293600424490049 2.3509886e-038
0.01636147097033147 0.6038436043359086 0.14828783023134973 2.3509886e-038
-0.002323343329299621 0.6339948276363228 -0.0010889533917847853 2.3509886e-038
0.019381213533682218 0.6078885390740547 0.17181371249457456 2.3509886e-038
0.0014784705739391002 0.6216656732239665 0.02033976183987455 2.3509886e-038
0.004223862527789557 0.6145900309781734 0.04144005621979745 2.3509886e-038
0.007590245510886662 0.6565313219519575 0.06714952145641911 2.3509886e-038
0.009741127853692744 0.5983016924911411 0.08219649321959882 2.3509886e-038
0.012953681729640093 0.6206633418417311 0.1072814182418318 2.3509886e-038
0.016038226069577388 0.6243428299003398 0.13031824278966642 2.3509886e-038
0.018104674517734398 0.5921973337890659 0.14517080969642715 2.3509886e-038
-1.2632219247249443E-4 0.6279985087362995 -0.001349257179114707 2.3509886e-038
0.021359817671922743 0.6040442495537313 0.17046484915546284 2.3509886e-038
0.003604392971017667 0.6356581469484032 0.020537157196988773 2.3509886e-038
0.006396006288901884 0.6185802856533107 0.041442244930057215 2.3509886e-038
0.009389250311009179 0.6246982031070176 0.06362410006308362 2.3509886e-038
0.011985472538398906 0.6121678549201652 0.08385048706088635 2.3509886e-038
0.014725464166607943 0.6048980921696593 0.10429534020234957 2.3509886e-038
0.018326051451232006 0.6321686672166149 0.1316926103926077 2.3509886e-038
0.020126371048110048 0.5941355871473964 0.14540253950027943 2.3509886e-038
0.002016014089675666 0.6179946750799035 -0.0015941773011587147 2.3509886e-038
0.023610390030709416 0.6078875315451246 0.17128741067916975 2.3509886e-038
0.00575223459026547 0.6296539629765705 0.020071783740800826 2.3509886e-038
0.008406260867149268 0.6165774393083528 0.041055721059341466 2.3509886e-038
0.011703186324912046 0.6386161065646078 0.06478043544952745 2.3509886e-038
0.014292839649076294 0.6200832020954647 0.08466796944632371 2.3509886e-038
0.016829949562618463 0.6088296360405022 0.10472470601051032 2.3509886e-038
0.020204905445443067 0.6223723643077753 0.1293847581827512 2.3509886e-038
0.022481939224377134 0.6018912583273068 0.14704265763960694 2.3509886e-038
0.0040886604276663685 0.6239838567467149 -0.001865308591863896 2.3509886e-038
0.025294973942597082 0.6001819014932549 0.16887223058834222 2.3509886e-038
0.007725687708322826 0.6216443590711417 0.019562018401462766 2.3509886e-038
0.010919256800996452 0.6385110934763399 0.04224152638573066 2.3509886e-038
0.013224723429421381 0.6067691012845625 0.061289328564760284 2.3509886e-038
0.015971996538399258 0.6062000095245981 0.0825254580166474 2.3509886e-038
0.019189460769108768 0.6166939113059364 0.10581359097243975 2.3509886e-038
0.022119220007567553 0.6184412845536194 0.1283167231508591 2.3509886e-038
0.024943459012107927 0.6135233249353743 0.14963621592394666 2.3509886e-038
0.006309836487608356 0.6299647595605559 -0.002155051748659825 2.3509886e-038
0.027558232814962974 0.6040106480137031 0.16969298930685262 2.3509886e-038
0.0099115747004426 0.6236209950788598 0.019355651156829724 2.3509886e-038
0.012656049616400461 0.6205314456876264 0.040798805124452234 2.3509886e-038
0.016172720856661715 0.6445446951934432 0.06484266025066138 2.3509886e-038
0.01783975916142022 0.5982527266647228 0.08118793022501133 2.3509886e-038
0.02169854608933397 0.6304619967210375 0.10792083286895104 2.3509886e-038
0.024575297805208285 0.6262442480441454 0.12966980050899907 2.3509886e-038
0.02673356447689937 0.6057318549261542 0.1474796358678374 2.3509886e-038
0.008409057714602652 0.6319394563353131 -0.0024210189305594893 2.3509886e-038
0.029742478552812507 0.6078331917726247 0.17052348494188485 2.3509886e-038
0.012194539796785642 0.6355850677122509 0.019467057410374723 2.3509886e-038
0.014807337251173142 0.6205014485650079 0.040530632622189214 2.3509886e-038
0.017897201729081047 0.6266096412290315 0.06277050015441962 2.3509886e-038
0.02014024698916672 0.6081283041172925 0.0822821262826342 2.3509886e-038
0.02336533936596047 0.6166388803010896 0.10529308883960548 2.3509886e-038
0.026642350119899766 0.6262129761147422 0.12941209074866333 2.3509886e-038
0.028181516222523573 0.5940528780132652 0.14439886782508143 2.3509886e-038
0.010631255448008192 0.6339050685000328 -0.0027024305119422026 2.3509886e-038
0.032259967090765396 0.6154935870051034 0.17241506932175377 2.3509886e-038
0.014754992824400265 0.6415388814195043 0.01934574577669979 2.3509886e-038
0.01679177231336995 0.6104864740353461 0.03960184227492383 2.3509886e-038
0.020755977373639795 0.6444706288992983 0.06427116984108708 2.3509886e-038
0.02253508468199375 0.610066844437666 0.08225964665533392 2.3509886e-038
0.025368202053432737 0.6106874882859066 0.10400614531936145 2.3509886e-038
0.029307870474718695 0.6320386076544946 0.13032400825715773 2.3509886e-038
0.031050380779913067 0.6056567857606074 0.14694128629495423 2.3509886e-038
0.012732292455007815 0.6238631679053686 -0.002942798102424338 2.3509886e-038
0.034076571303088055 0.6077570764838568 0.1699829693304194 2.3509886e-038
0.016814222552294644 0.6394962479344831 0.01902282571810311 2.3509886e-038
0.019526233736156695 0.630390746658134 0.04062331103261611 2.3509886e-038
0.02199796879701263 0.6165771105724496 0.06122714935726964 2.3509886e-038
0.025263799494174066 0.6278483304455814 0.08440500813534174 2.3509886e-038
0.027843446568003694 0.6185199223663401 0.10508013737108945 2.3509886e-038
0.03149125972648503 0.633948570498177 0.1304663537958235 2.3509886e-038
0.0328385939463435 0.6017293467774707 0.14575136105046144 2.3509886e-038
0.0148927645027786 0.6238140193461722 -0.003212408760030745 2.3509886e-038
0.035274355064030594 0.5923235206065501 0.16542247636095025 2.3509886e-038
0.01867324776358123 0.6274527680566765 0.01839475867705833 2.3509886e-038
0.0217803425489847 0.6323314633919122 0.040478212135361624 2.3509886e-038
0.025037485139143723 0.6423807352018017 0.06353047934294921 2.3509886e-038
0.026577033939598482 0.6079891934876138 0.0814789765359879 2.3509886e-038
