VERSION 0.7
FIELDS x y z rgb
SIZE 4 4 4 4
TYPE F F F F
COUNT 1 1 1 1
WIDTH 649
HEIGHT 1
VIEWPOINT 0 0 0 1 0 0 0
POINTS 649
DATA ascii
1.3718111709254834 1.1543311938820155 -0.24850196526372814 2.3509886e-038
1.4359482651168785 1.1468959057069292 0.25965062849920884 2.3509886e-038
1.396960418320653 1.1670472244893433 -0.1881550198645317 2.3509886e-038
1.1574130008591244 0.9176718626946534 0.2612917347986454 2.3509886e-038
0.43073551315809877 0.37618592664315886 -0.2064342808200939 2.3509886e-038
1.4235697687796662 1.1778546615644263 -0.12653785582255134 2.3509886e-038
0.4272729743774304 0.370255217148698 -0.1821672871419432 2.3509886e-038
1.4132329501170664 1.160983420128968 -0.061560135687372876 2.3509886e-038
0.4418964489466607 0.380138998738874 -0.16570414931511945 2.3509886e-038
1.4318297691366095 1.1683165073164576 0.0020381361843595514 2.3509886e-038
0.4562761634022008 0.38956238435645263 -0.14824712310542268 2.3509886e-038
0.5342355183987936 0.43281492468347266 0.024649921037600206 2.3509886e-038
0.47478850556840685 0.4023694543013925 -0.13103701116654728 2.3509886e-038
0.5518566223239232 0.44390098899170016 0.05006241921405219 2.3509886e-038
0.4733344922389915 0.3983493135836099 -0.10796421273210105 2.3509886e-038
0.5314425579400152 0.4245639422672818 0.07190374972556368 2.3509886e-038
1.3879496601738712 1.1596264009467663 -0.25127293433178743 2.3509886e-038
1.4290644881134327 1.13341287654631 0.257126978542495 2.3509886e-038
1.4101706527376987 1.1697415059449843 -0.18996855632736784 2.3509886e-038
1.1636937216014471 0.9162065125524568 0.26153122520925 2.3509886e-038
0.4291824662699504 0.37213829139550747 -0.205259572170722 2.3509886e-038
1.4430511828919008 1.1855282767660271 -0.12849268173643147 2.3509886e-038
0.43142886730026975 0.37117738054100646 -0.18357712741407423 2.3509886e-038
1.4371751722693735 1.1727300601510862 -0.06298809157944266 2.3509886e-038
0.43149983780800216 0.3685404077718061 -0.16151110809054153 2.3509886e-038
1.4451917749977647 1.17090536272926 0.0014692397056904338 2.3509886e-038
0.4665004891720948 0.395448147302094 -0.15132117327770048 2.3509886e-038
0.5279459343797182 0.4247084303079518 0.024080287869181177 2.3509886e-038
0.47168007452696215 0.3968862184933438 -0.1299971689228332 2.3509886e-038
0.5439649259750674 0.4346310537056723 0.049010652904940694 2.3509886e-038
0.4595874899963227 0.3840285707002199 -0.10471601274167791 2.3509886e-038
0.5344720270529832 0.4239878248675837 0.07190260448014091 2.3509886e-038
1.4163376684972322 1.1749396247802362 -0.25625875174187696 2.3509886e-038
1.4392188341690741 1.1334689050598306 0.25767808614982346 2.3509886e-038
1.4247493380625107 1.1738718637247978 -0.1919655773043097 2.3509886e-038
1.1574065706373835 0.9051991381288592 0.25901502495217255 2.3509886e-038
0.41905480292194847 0.36074496783848403 -0.20000017340290094 2.3509886e-038
1.457758440871003 1.1895513569470957 -0.13001484747980507 2.3509886e-038
0.436979336186639 0.37338977383090655 -0.1855941713943517 2.3509886e-038
1.464520665859375 1.1865927625123995 -0.06459615692294918 2.3509886e-038
0.4371659736521052 0.37070609612980154 -0.1633368085621883 2.3509886e-038
1.4570301898107978 1.1721615664497136 8.93840388183631E-4 2.3509886e-038
0.46185122494513675 0.38884781123333134 -0.14958235999417768 2.3509886e-038
0.5371491392659968 0.4292174102506926 0.024232375286140292 2.3509886e-038
0.47297677551017325 0.39527880311177843 -0.13018309390301308 2.3509886e-038
0.5454696013389448 0.432765579969972 0.048794904104394216 2.3509886e-038
0.4684899589775327 0.38867859114309744 -0.10663095904035738 2.3509886e-038
0.5280564229813838 0.41610095929591867 0.07065722709584615 2.3509886e-038
1.4293552823288793 1.1777255883438704 -0.25846879916840143 2.3509886e-038
1.4491934651581573 1.133713870322461 0.25825441425033613 2.3509886e-038
1.4457323742700705 1.1827021548163956 -0.1948282879425448 2.3509886e-038
1.1543259265588637 0.8964637130063178 0.2571779503724041 2.3509886e-038
0.42594681245565086 0.36417050949316626 -0.20289206962006434 2.3509886e-038
1.471164476073389 1.1919748690762275 -0.13143475232629562 2.3509886e-038
0.4455159340038666 0.377949533052404 -0.18885371148104368 2.3509886e-038
1.4873067711032404 1.196520455142503 -0.06601357511451436 2.3509886e-038
0.4427882381665619 0.3729155283775545 -0.1651563813531024 2.3509886e-038
1.4874405444037628 1.1885858881832387 3.47727572673151E-4 2.3509886e-038
0.4646765637018569 0.38842625870731806 -0.1502556618010983 2.3509886e-038
0.5355021576829991 0.42488020397873116 0.023879674733193093 2.3509886e-038
0.4818650730984062 0.3998295789061569 -0.1324476455335601 2.3509886e-038
0.5516695666186737 0.43459867260477014 0.04899746834040605 2.3509886e-038
0.45918417715595883 0.37824055084434344 -0.10440300384596038 2.3509886e-038
0.5294981241685891 0.4143000195473351 0.07045030079906534 2.3509886e-038
1.4515610777790406 1.1275837971292826 0.2574126551344762 2.3509886e-038
1.4745137080340065 1.1976688719553552 -0.19874333117343299 2.3509886e-038
1.1621172516075169 0.8961800912563823 0.25776927624253254 2.3509886e-038
0.43585955537848925 0.36982631739599836 -0.2071691002761561 2.3509886e-038
1.4939318668003685 1.201822660581354 -0.13369482366865743 2.3509886e-038
0.4293471654354155 0.3616132402073097 -0.18165068781133292 2.3509886e-038
1.5070558408206007 1.2038076328195266 -0.0673044734941917 2.3509886e-038
0.4470832917347905 0.3736945138541635 -0.16644808077845652 2.3509886e-038
1.5152576190708194 1.2018114398080142 -2.759811877734164E-4 2.3509886e-038
0.45860838853608393 0.38046918982412914 -0.14804573766455026 2.3509886e-038
0.5338317232565772 0.420559173375902 0.02353013216701645 2.3509886e-038
0.46662854156025485 0.3844163666269178 -0.12808546493352937 2.3509886e-038
0.5594602126862176 0.43762346852471634 0.0493356525772789 2.3509886e-038
0.4787834303621995 0.39156707165995447 -0.1087459208914294 2.3509886e-038
0.5278633484896776 0.40996307201089555 0.06981816621226924 2.3509886e-038
0.5243202342236574 0.42572800522752674 -0.09469964306444642 2.3509886e-038
1.4493923415363152 1.1175757027039086 0.2557157363691803 2.3509886e-038
1.501866873863301 1.2111990532819645 -0.20246747417275798 2.3509886e-038
1.1746124827560023 0.899446565847581 0.25939465087361846 2.3509886e-038
0.4400023970009802 0.3706477950491749 -0.20871539830835822 2.3509886e-038
1.5201120497970457 1.2137496676128912 -0.13627737172587462 2.3509886e-038
0.4335688782264482 0.36240753859694 -0.1830706732435849 2.3509886e-038
1.520608859337414 1.2060036534196383 -0.06832426605395342 2.3509886e-038
0.4468861592528905 0.37084416030039863 -0.16608254775625553 2.3509886e-038
1.538266162272043 1.2114044006936089 -8.839826077358115E-4 2.3509886e-038
0.4689041350492204 0.38621823968997404 -0.15113076520459715 2.3509886e-038
0.5337843990554059 0.41739433345196375 0.023241978935941626 2.3509886e-038
0.4619577691600354 0.37770528934195513 -0.12662436187767342 2.3509886e-038
0.5530963606213627 0.4295848842463905 0.0484279385419244 2.3509886e-038
0.4678983085009848 0.3799268392527094 -0.1061641654518613 2.3509886e-038
0.5324344051019131 0.41059191356312486 0.07002824419861972 2.3509886e-038
0.5242446097296127 0.4226255333371128 -0.09463218641939675 2.3509886e-038
1.4406857920806662 1.1030256702936676 0.25294914780587374 2.3509886e-038
1.5122524794398682 1.210875349994334 -0.20390535657952752 2.3509886e-038
1.1808709682166927 0.8978691473429545 0.2596351939245183 2.3509886e-038
0.43838819718802224 0.36661964970333066 -0.20753276764866513 2.3509886e-038
1.5459748969831355 1.2260408212242015 -0.13881486622447584 2.3509886e-038
0.44353242198469245 0.36819494937031544 -0.18694240172429788 2.3509886e-038
1.5420463137895486 1.2143026859589483 -0.0697042803876715 2.3509886e-038
0.44519103875094346 0.36677732785789063 -0.16516462011836014 2.3509886e-038
1.5550572968004326 1.2159238985148626 -0.0014986778121158784 2.3509886e-038
0.47316889789476213 0.38706892820326566 -0.15227903743330068 2.3509886e-038
0.5383133365850086 0.41809736856798846 0.02318051299838267 2.3509886e-038
0.4814154124968158 0.3909300707231245 -0.131790860015737 2.3509886e-038
0.5498435139112029 0.4240320215616754 0.04780179835831683 2.3509886e-038
0.4799391729779402 0.3869111470946524 -0.10878525664878072 2.3509886e-038
0.5385238047913212 0.41249536801980335 0.07045348785745062 2.3509886e-038
0.5395410991886881 0.43200000972279373 -0.09734149068009179 2.3509886e-038
1.4474737722266575 1.1007808964549486 0.2529770905564409 2.3509886e-038
1.5288817475411338 1.2154441951028856 -0.20618599300321755 2.3509886e-038
1.1792707097184794 0.8903242615209429 0.2581538495041874 2.3509886e-038
0.4294596077616198 0.35668354033991756 -0.20292197942112955 2.3509886e-038
1.5596094623437615 1.2280242301686874 -0.14026993672019172 2.3509886e-038
0.44185912711573677 0.36415635413498426 -0.18588913481211833 2.3509886e-038
1.5745814184191038 1.2310836028605654 -0.07159695878813685 2.3509886e-038
0.4389472190161596 0.3591554299136305 -0.1625812774601838 2.3509886e-038
1.5701063455636675 1.219387348603935 -0.0020884594126540923 2.3509886e-038
0.4654604622932684 0.3780218771749231 -0.14956637398393346 2.3509886e-038
0.5413422405711708 0.4174610769495408 0.023039558126037946 2.3509886e-038
0.4766680085112833 0.38429233982585836 -0.13031910787384182 2.3509886e-038
0.5481429863439916 0.4197194658893113 0.04731678713455248 2.3509886e-038
0.45820633151919044 0.3667396447304794 -0.10375452551822092 2.3509886e-038
0.5367860805206629 0.4082495725435473 0.0698355566621808 2.3509886e-038
0.5534308447849471 0.4399453027191259 -0.09979213087649691 2.3509886e-038
1.4544531909696783 1.0982572229620637 0.25297691815928136 2.3509886e-038
1.5580495161038173 1.2297685171464185 -0.21015894667142485 2.3509886e-038
1.1792082236165178 0.8839819764210733 0.25702121932048616 2.3509886e-038
0.43074255769549596 0.35502738467065453 -0.2031069388683276 2.3509886e-038
1.5874216510194936 1.2409844078354866 -0.1430045693525791 2.3509886e-038
0.44605183403532794 0.3649526232377578 -0.18730546604910986 2.3509886e-038
1.5930415906354078 1.2366219293453118 -0.07285972627551826 2.3509886e-038
0.4491954981035725 0.3647538974029718 -0.16607842444690335 2.3509886e-038
1.5982911040688097 1.2319831508441434 -0.002767548376222506 2.3509886e-038
0.471355874062738 0.37991203581635646 -0.15121694713083697 2.3509886e-038
0.5364378026442536 0.41073277189608637 0.022564303055184434 2.3509886e-038
0.4734077766030136 0.37891590273071596 -0.12925873701638882 2.3509886e-038
0.5591264567378951 0.4250846564512527 0.04792414232198919 2.3509886e-038
0.46717744131967553 0.3712316033785731 -0.10568042604663094 2.3509886e-038
0.5208051857860709 0.393141478381978 0.0673622592161022 2.3509886e-038
0.5643494465855932 0.445244017775188 -0.10170258008423919 2.3509886e-038
1.460037182377845 1.0942629382968125 0.2526744622368675 2.3509886e-038
1.587335511263808 1.243901440204737 -0.21414953786141439 2.3509886e-038
1.182276674953862 0.8800031037409544 0.2565785764010412 2.3509886e-038
0.4421394994639755 0.3617763048883519 -0.20807359508464662 2.3509886e-038
1.6139821063515678 1.2522595367115055 -0.1456444023656988 2.3509886e-038
0.4355540418264346 0.353652585551286 -0.18254472458085097 2.3509886e-038
1.6133569380085246 1.2429853027932545 -0.07423521954631358 2.3509886e-038
0.4549366218514357 0.36674357711006095 -0.167916147113518 2.3509886e-038
1.6184308477138178 1.238593504748894 -0.003415558389814194 2.3509886e-038
0.4559965195209779 0.36487747552376326 -0.1460673202620671 2.3509886e-038
0.5490697998447133 0.4172553676590486 0.0228118609129504 2.3509886e-038
0.4824329428882985 0.38321614515462077 -0.13154415760903404 2.3509886e-038
0.5574858199772863 0.42066611745456306 0.047430065824624834 2.3509886e-038
0.483915428468006 0.38176249485978836 -0.10935874311189933 2.3509886e-038
0.534903119996847 0.40090988011222417 0.0688037877511326 2.3509886e-038
0.5721183513179438 0.4481270336701225 -0.10304709086966826 2.3509886e-038
1.460653105480099 1.0869426449911896 0.251579035589207 2.3509886e-038
1.5918362883156265 1.2380238445072254 -0.21479943603516793 2.3509886e-038
1.1886531641385276 0.8781555976266953 0.25680033623476894 2.3509886e-038
0.43608626168397513 0.3542294770730633 -0.20482740526973314 2.3509886e-038
1.6451677521235692 1.2672947938462955 -0.14869668446978845 2.3509886e-038
0.442688723773917 0.3568370617403466 -0.18519744849666614 2.3509886e-038
1.6366982498746827 1.2519291088816353 -0.07573676651106398 2.3509886e-038
0.46069705659782156 0.3686961886539868 -0.1697568319497198 2.3509886e-038
1.652967651637177 1.2559688805745273 -0.004109200400211344 2.3509886e-038
0.46940241822129786 0.3728870636632654 -0.15013538109639168 2.3509886e-038
0.5377473590864943 0.40572932173547627 0.02207919363009231 2.3509886e-038
0.4730003883978738 0.3730086248937216 -0.12880710917850383 2.3509886e-038
0.5573449801414195 0.4175567953733236 0.047084714746514184 2.3509886e-038
0.47127653564235783 0.36910949001677706 -0.10639858698860533 2.3509886e-038
0.5378882708769119 0.40027215493391033 0.06880719952853029 2.3509886e-038
0.5642829454046673 0.4388050653027007 -0.10158180167350561 2.3509886e-038
1.4660158197636866 1.083163017332283 0.25130739489363263 2.3509886e-038
1.603973375515248 1.2384871888700042 -0.21647839129618568 2.3509886e-038
1.2012351504736924 0.8811367493248123 0.25841055268478064 2.3509886e-038
0.4358370014865682 0.35144928576438217 -0.20431720828745276 2.3509886e-038
1.6669699100084756 1.2748546838316692 -0.15090682385331072 2.3509886e-038
0.44688131885316196 0.3575978632429551 -0.18661432327637428 2.3509886e-038
1.658311192011429 1.2598052085877514 -0.07714507660554817 2.3509886e-038
0.44540975166674124 0.3538743871419052 -0.16385074786408294 2.3509886e-038
1.6780638027820065 1.2658922156777739 -0.004796235273312466 2.3509886e-038
0.4798225464846412 0.3784019561595089 -0.15323946595493426 2.3509886e-038
0.5631484289426811 0.4218504350690184 0.02284993542154516 2.3509886e-038
0.47428248624659686 0.3713126930097085 -0.12899257094197128 2.3509886e-038
0.5523146152275868 0.4109749713622942 0.04634868315331431 2.3509886e-038
0.4741008043647349 0.36863771296789305 -0.1069328845951518 2.3509886e-038
0.5408753382376698 0.39961864794416746 0.06881016151797276 2.3509886e-038
0.587736000963041 0.4537440935021248 -0.10574833238737316 2.3509886e-038
1.4649794889755006 1.0746712883060758 0.24994618575069905 2.3509886e-038
1.6459021403690337 1.2621571224263144 -0.22217761833944244 2.3509886e-038
1.1961773347601907 0.8714830585833668 0.2562837844580508 2.3509886e-038
0.4370405996849157 0.3498496713385728 -0.20449142970417927 2.3509886e-038
1.6663820171142585 1.2656816627579266 -0.1510795013883533 2.3509886e-038
0.44804604167036965 0.3560490897725695 -0.18678293008779479 2.3509886e-038
1.6897862162501986 1.2744795351593914 -0.07904356579309896 2.3509886e-038
0.4511504640171073 0.3558292243243345 -0.1656889522235206 2.3509886e-038
1.6968452919710648 1.2708607843052606 -0.005476032891424454 2.3509886e-038
0.4780029209461665 0.37436624791746786 -0.15244414001978024 2.3509886e-038
0.5517042172651858 0.4104588897541064 0.02213447645816974 2.3509886e-038
0.4832141969982603 0.3756988679806759 -0.13126504162912214 2.3509886e-038
0.5585523554828635 0.412636675152812 0.046543926044905426 2.3509886e-038
0.473810486280208 0.36574424039633446 -0.10676534025679213 2.3509886e-038
0.5357743572164727 0.3931564397004016 0.06780759231884928 2.3509886e-038
0.582935404701376 0.44694558945414803 -0.1048330311519613 2.3509886e-038
1.4797304780887284 1.0781147647001308 0.25133741808791243 2.3509886e-038
1.4429813801547504 1.0985559909888003 -0.19482311870780825 2.3509886e-038
1.1928148971785166 0.8628251235576008 0.25448298702601935 2.3509886e-038
0.43523807386796426 0.34598819075921305 -0.20328283275014336 2.3509886e-038
1.6691553132632257 1.2586358293934472 -0.15156750125367352 2.3509886e-038
0.45225163179925015 0.3567694956623193 -0.18820202456013202 2.3509886e-038
1.719782442387257 1.2877519440950926 -0.08088497481386198 2.3509886e-038
0.4477721039929781 0.35072037059522265 -0.16419291952623072 2.3509886e-038
1.7186696276399966 1.278398403981333 -0.00614378749190736 2.3509886e-038
0.46856954208060303 0.3643087736079941 -0.1492169913872135 2.3509886e-038
0.5724187010400771 0.422807116816701 0.0226936957325454 2.3509886e-038
0.4876013142637561 0.37635588722405156 -0.1322921496009413 2.3509886e-038
0.5615898369216346 0.41189982925385915 0.04647003359588406 2.3509886e-038
0.48281848236537583 0.37012861819899656 -0.10869747943132926 2.3509886e-038
0.5355282050442793 0.39015605530146913 0.06740771114634497 2.3509886e-038
0.5844742933885477 0.44487867157202887 -0.10505611780561058 2.3509886e-038
1.481863712287042 1.071929966967324 0.25052398440509094 2.3509886e-038
1.1990114291238188 0.861097411749965 0.25472890998676145 2.3509886e-038
0.44821820817927793 0.3536989356694257 -0.20895346970080098 2.3509886e-038
1.6990460831023366 1.2719079993632798 -0.15452081302017634 2.3509886e-038
0.4415015569345073 0.3457438508441265 -0.18340569642240273 2.3509886e-038
1.7418717604466196 1.294867984787826 -0.08236418951726548 2.3509886e-038
0.4702107673627587 0.3656078159039663 -0.17214161249683396 2.3509886e-038
1.7456105239494466 1.2890682010731696 -0.006873259114883984 2.3509886e-038
0.45907293880439104 0.354324270599609 -0.14598086007560634 2.3509886e-038
0.5384164382000285 0.39482513739832314 0.021092237432513386 2.3509886e-038
0.4826866653582196 0.36985084036864935 -0.1307975438301713 2.3509886e-038
0.5646286594781 0.41114705066469504 0.04639573811386313 2.3509886e-038
0.47939174970329074 0.36483062540028177 -0.10782511080835114 2.3509886e-038
0.5401045567111239 0.3906600570806371 0.0676152210024718 2.3509886e-038
0.5812673953548146 0.4392256722136786 -0.104427088398375 2.3509886e-038
1.4855806458592702 1.066899188350579 0.24998456666572533 2.3509886e-038
1.7431871732272333 1.3079481803704804 -0.23544635320217616 2.3509886e-038
1.2084195521280647 0.8616260116288974 0.2556531769751884 2.3509886e-038
0.4420374431881375 0.34626381979386234 -0.20568970387271845 2.3509886e-038
1.7306491951463234 1.2861760273810399 -0.1576367645783076 2.3509886e-038
0.45169035536801483 0.35113288037539964 -0.18731155992586718 2.3509886e-038
1.764030148611111 1.3018454037732854 -0.08385412581115695 2.3509886e-038
0.45017306960620784 0.34746848357372345 -0.1645413924510758 2.3509886e-038
1.7839365101616997 1.307844245602757 -0.00766558968465772 2.3509886e-038
0.47260499991674065 0.36210511821374125 -0.15006811694108127 2.3509886e-038
0.5769524662822125 0.420027592266035 0.02233272839684794 2.3509886e-038
0.47150852318539876 0.3586511600879009 -0.12761282226298598 2.3509886e-038
0.5612000408763979 0.405701263006372 0.045793090823008475 2.3509886e-038
0.49635415417286416 0.37498811137500243 -0.11153705795860402 2.3509886e-038
0.5414579757102966 0.38881609822818447 0.06741862122867673 2.3509886e-038
0.5906976941603428 0.443104629557768 -0.10606857768723091 2.3509886e-038
1.7588563445960763 1.3101154417014707 -0.23760907701722994 2.3509886e-038
1.2146277996451231 0.8598235212280594 0.2558965286068897 2.3509886e-038
0.4402583212740626 0.3423368712850204 -0.20448502019954784 2.3509886e-038
1.784842254567216 1.3168157055933039 -0.16282058261770432 2.3509886e-038
0.4438660128582523 0.3425189551347924 -0.18374921384749443 2.3509886e-038
1.786257560677058 1.3086843724708543 -0.08535475279829977 2.3509886e-038
0.4513649357388335 0.34583637294379505 -0.16471465110898753 2.3509886e-038
1.8062426608421591 1.3146001376930694 -0.008405249539005732 2.3509886e-038
0.4784787593579578 0.3639230617402295 -0.1517171079756272 2.3509886e-038
0.5476214051095161 0.3957880095011573 0.020944225484746407 2.3509886e-038
0.48054207655096703 0.36285135078011244 -0.12990082411042994 2.3509886e-038
0.5577402871051038 0.40028392223476084 0.04519476758994154 2.3509886e-038
0.4740216217943338 0.35550253818967714 -0.10642122383083366 2.3509886e-038
0.5557675050909385 0.3962085549398326 0.06882807247321313 2.3509886e-038
0.6081004208292596 0.45283359881611257 -0.10914001632468726 2.3509886e-038
0.488488438752115 0.34577770690693976 0.08144235121410662 2.3509886e-038
1.784153668894864 1.3192815763695198 -0.24107380847837445 2.3509886e-038
1.2143868913128348 0.8534544281846712 0.25478571853327914 2.3509886e-038
0.43251255997762167 0.33383851830500794 -0.2005210886915001 2.3509886e-038
1.7684649247566817 1.2952344765594423 -0.16157022069205462 2.3509886e-038
0.46012580283340354 0.3524563767324324 -0.19015457753961346 2.3509886e-038
1.8069371175680478 1.3142077184247802 -0.08678840997023476 2.3509886e-038
0.45255113621678883 0.34419994649163965 -0.16488727082743415 2.3509886e-038
1.828616644980958 1.3212165531175795 -0.009155512717241632 2.3509886e-038
0.48282318796236673 0.3645351141722736 -0.15287893475195197 2.3509886e-038
0.6025896805915856 0.4323553596188383 0.022770426682244896 2.3509886e-038
0.48335334055027385 0.3623011479786778 -0.13050466719749546 2.3509886e-038
0.5591256718355697 0.3983692997070629 0.04499310977152468 2.3509886e-038
0.47998094299289384 0.3573391955312186 -0.10766164202331821 2.3509886e-038
0.5425213208767785 0.38396449916233066 0.06682752427288177 2.3509886e-038
0.6096594485599214 0.45067746010746657 -0.1093669733073252 2.3509886e-038
0.5188741231508412 0.36462930614684 0.08611156219287724 2.3509886e-038
1.8047271636116067 1.3247552394212856 -0.24390171917737136 2.3509886e-038
1.2108826992375703 0.8448410362299136 0.2530032100205635 2.3509886e-038
0.4455773060422082 0.3413861479406963 -0.2062047480876123 2.3509886e-038
1.2905779594993043 0.9383306003242435 -0.11808614021999804 2.3509886e-038
0.45377072170703525 0.34502813907995344 -0.18721034174134238 2.3509886e-038
1.8503601521725952 1.335980542231736 -0.08932650372100462 2.3509886e-038
0.4552646497968706 0.3437166576598643 -0.16561689514746458 2.3509886e-038
1.8624345053163505 1.3358530932786477 -0.009977251430788758 2.3509886e-038
0.4701109902472414 0.3523294994880532 -0.14864604006148494 2.3509886e-038
0.5650065664120343 0.4024408961683583 0.021093651109256636 2.3509886e-038
0.49714437964586466 0.3699037861327531 -0.1340695023949275 2.3509886e-038
0.5637633100657058 0.39875463353658036 0.0450526024949057 2.3509886e-038
0.4796270580341906 0.35445834110021385 -0.10748599168038497 2.3509886e-038
0.5357100626872615 0.3763916646216256 0.06563616366991393 2.3509886e-038
0.6159982809273579 0.45202932277127594 -0.11045147691837384 2.3509886e-038
0.5428945717576182 0.3787424363057988 0.08968660977641307 2.3509886e-038
1.2235387441980201 0.8474859500524929 0.25459909939433867 2.3509886e-038
0.44076933331174295 0.33520686765813573 -0.2036142574392948 2.3509886e-038
0.9703603614361852 0.7003529555179246 -0.08891849309583218 2.3509886e-038
0.45495300014115336 0.3433737208550587 -0.18738274862765697 2.3509886e-038
1.8791033506708708 1.34731563251411 -0.09114713486019743 2.3509886e-038
0.46105406642374946 0.34552159511838176 -0.16746345206869762 2.3509886e-038
1.8996331163190214 1.3525904074227317 -0.010836182497384106 2.3509886e-038
0.4822090470406773 0.3587355011167265 -0.15226058511193105 2.3509886e-038
0.48740939722723514 0.35999299786296224 -0.13129028634676218 2.3509886e-038
0.5699740931925532 0.40035733445140675 0.04525029712185438 2.3509886e-038
0.4903677434124488 0.3597337605717097 -0.10979577021216469 2.3509886e-038
0.5435431452515952 0.3791159881273407 0.06624161070832602 2.3509886e-038
0.6047552871872824 0.4405222209239309 -0.10838463513766053 2.3509886e-038
0.534431755435674 0.3701277867810479 0.08788728986769109 2.3509886e-038
0.7167453341106301 0.5186386417162099 -0.09690276013064385 2.3509886e-038
1.229582197699065 0.8457941487668993 0.2548646482950673 2.3509886e-038
0.44940694335290926 0.33924439483577146 -0.2072356923318126 2.3509886e-038
0.9515808492412636 0.6820155706233476 -0.08731962985698562 2.3509886e-038
0.44846964170170517 0.33610151175977343 -0.18442016570801406 2.3509886e-038
1.8967785156281312 1.3500308200313595 -0.09246089781411779 2.3509886e-038
0.4576165879204266 0.3404119132504687 -0.16596007625710846 2.3509886e-038
1.9337034712403725 1.366776646524052 -0.011696224585147713 2.3509886e-038
0.480260488735445 0.3547807914413942 -0.15144799302557926 2.3509886e-038
0.5546253315004159 0.38944301942212606 0.020221372242205063 2.3509886e-038
0.49016063749920114 0.35948941649967714 -0.1318859555008483 2.3509886e-038
0.5680854691364807 0.3961171226552689 0.04478979611161568 2.3509886e-038
0.48365022313880746 0.3521930711322341 -0.1081968946103955 2.3509886e-038
0.5513350257621088 0.3818852814827347 0.06685288707208736 2.3509886e-038
0.611007030028225 0.4419655438320638 -0.10945690389810706 2.3509886e-038
0.5323850179048363 0.3661568463673973 0.08717437300699066 2.3509886e-038
1.2374023239159007 0.844975782393621 0.25544418219137843 2.3509886e-038
0.44450331686324807 0.3331766820209383 -0.20463159371421918 2.3509886e-038
0.9328062665106351 0.663647502454766 -0.0857218492328777 2.3509886e-038
0.4557176734632109 0.33900197533777743 -0.1870913367853727 2.3509886e-038
1.9308168636982246 1.3641692035632214 -0.09458102367064758 2.3509886e-038
0.4571812264096266 0.3376955106228947 -0.165562845585837 2.3509886e-038
1.9709295019297004 1.38338150156771 -0.012560563119700358 2.3509886e-038
0.4814782416761367 0.3530500966320953 -0.15162598037737948 2.3509886e-038
0.48823561493417345 0.3554321664552009 -0.13121719516840713 2.3509886e-038
0.5645331050880378 0.3907587717691934 0.04420389804424743 2.3509886e-038
0.4863954255438895 0.3517087984704875 -0.1087215455474072 2.3509886e-038
0.5493780350989053 0.3777470879566509 0.06626388362223243 2.3509886e-038
0.623782056833103 0.44787972680874577 -0.11169441340917546 2.3509886e-038
0.5336546307714926 0.3643483367531519 0.08698874291862904 2.3509886e-038
0.9258818986837762 0.6601491208187273 -0.12522779731379088 2.3509886e-038
1.2338070565654444 0.8363695711051922 0.2536731455193876 2.3509886e-038
0.4411270431709092 0.3281865440269639 -0.20272275772595666 2.3509886e-038
0.9285783663892282 0.6557741156362256 -0.08545692187247829 2.3509886e-038
0.45993507713668397 0.3395973474741092 -0.1885138284315005 2.3509886e-038
1.9846083465923308 1.3918559883064585 -0.09768582475194022 2.3509886e-038
0.4505970057559877 0.3303622956936101 -0.1629327336452307 2.3509886e-038
2.003604161989284 1.3959778039628017 -0.013446956359931317 2.3509886e-038
0.4889586952879312 0.3558775008030616 -0.15377475073919944 2.3509886e-038
0.5869038040871608 0.40608364064091734 0.020881280961636994 2.3509886e-038
0.48787262795439434 0.35253795162851953 -0.1309706562566283 2.3509886e-038
0.5658855986665354 0.3888200015049677 0.04400596337198459 2.3509886e-038
0.47321664331446656 0.33964792882969996 -0.10568516167589406 2.3509886e-038
0.544111295102338 0.3713825451025706 0.06528344758986174 2.3509886e-038
0.6430517278546855 0.45830346201157124 -0.11509301218577125 2.3509886e-038
0.5480450066824578 0.37143169883568217 0.08893395989337108 2.3509886e-038
0.9021936863862224 0.6385098743558215 -0.12204850828083688 2.3509886e-038
1.2301666790750327 0.827797194260485 0.2519082391115083 2.3509886e-038
0.442250110751108 0.3265694192801847 -0.2028872269732499 2.3509886e-038
0.9292063131097861 0.6513722617898865 -0.08563755477360731 2.3509886e-038
0.4641621964220901 0.3401662038282537 -0.18993791945048782 2.3509886e-038
2.025493367484046 1.4100503055313038 -0.10017384980644985 2.3509886e-038
0.4563867108530636 0.332118488286888 -0.16478007196193595 2.3509886e-038
2.0150059780681753 1.393574265832621 -0.014199697314333487 2.3509886e-038
0.476040323064844 0.34390052015866346 -0.14951270619112858 2.3509886e-038
0.49861127504940184 0.35762311606651553 -0.13370290207453817 2.3509886e-038
0.5705291373304207 0.38912588889454475 0.04406350688572058 2.3509886e-038
0.4823977748105216 0.34367010533286757 -0.10764438636779844 2.3509886e-038
0.540454651966067 0.36617464175219305 0.06450495654060232 2.3509886e-038
0.6413978560281103 0.45373799325569836 -0.11474607316128138 2.3509886e-038
0.5361752396566583 0.36071757288690676 0.0866195889214581 2.3509886e-038
0.8718611770377225 0.612475031421524 -0.11796901991452721 2.3509886e-038
1.233039954125053 0.8236399024619725 0.2514871521421298 2.3509886e-038
0.4524468928759716 0.3316024983091146 -0.20720912302937267 2.3509886e-038
0.9265412839799828 0.6446959466984191 -0.0855135994944493 2.3509886e-038
0.44382705893890784 0.3228356394479203 -0.18132485486003302 2.3509886e-038
2.0533757555728562 1.4188873510416766 -0.10203106516117565 2.3509886e-038
0.46997510402191606 0.3394569763659361 -0.16943541008700597 2.3509886e-038
2.0280643449585654 1.392239569298236 -0.014966498552592494 2.3509886e-038
0.47722047575217763 0.34218530724915275 -0.14968577837511166 2.3509886e-038
0.6095268728671889 0.4155398040320032 0.02115880209886513 2.3509886e-038
0.493472468132312 0.35130330354205686 -0.1321775801229241 2.3509886e-038
0.5768343182943535 0.3905233703002525 0.04424631749874175 2.3509886e-038
0.4835794031967445 0.34195079573029075 -0.10781770481941486 2.3509886e-038
0.5499810035170063 0.36988221078503647 0.06529936305693787 2.3509886e-038
0.6445790628888606 0.4526013179351137 -0.11526476960861118 2.3509886e-038
0.5440202086071453 0.3632992298648671 0.08749666623056132 2.3509886e-038
0.869079114248932 0.6059900803235426 -0.1176165103835719 2.3509886e-038
1.2424726337280783 0.8238313715729282 0.25240317758598974 2.3509886e-038
0.4520645878016732 0.3288406296684975 -0.20668209179499158 2.3509886e-038
0.93040496305861 0.6425792930594372 -0.08599153009423789 2.3509886e-038
0.4541701738532019 0.3278872310591232 -0.18525507986229284 2.3509886e-038
2.017073967351511 1.3834656330819697 -0.10069325135703407 2.3509886e-038
0.4680188097142881 0.33551732162335823 -0.16848304100897554 2.3509886e-038
2.0560115465844833 1.4009672709086838 -0.01585086642763947 2.3509886e-038
0.49102568649668005 0.34945505783013514 -0.1538148459270106 2.3509886e-038
0.6540125270939514 0.44256618775967094 0.022423847794885557 2.3509886e-038
0.48989192454196856 0.34615241857606693 -0.13107391260485807 2.3509886e-038
0.5699022795162919 0.3829757521518021 0.04341680856384056 2.3509886e-038
0.5024703124374807 0.3526610243961934 -0.11193682197260896 2.3509886e-038
0.5545733375084557 0.37021329945373727 0.06550223979353154 2.3509886e-038
0.6396427544996891 0.4457905356033305 -0.11433277026029906 2.3509886e-038
0.5254515367939235 0.34830695431652836 0.08413668853430153 2.3509886e-038
0.8531874989472028 0.590482207698643 -0.11548942525212283 2.3509886e-038
1.248626666895469 0.821800047300077 0.2526497750247654 2.3509886e-038
0.45166888859057774 0.32608599259433435 -0.2061533134396989 2.3509886e-038
0.9572928500312088 0.6562288847982348 -0.08860061318321208 2.3509886e-038
0.4583798950117575 0.32844410899149856 -0.18667720434569368 2.3509886e-038
2.041670670758858 1.3899214315402646 -0.10238905115624687 2.3509886e-038
0.458221816877293 0.32603237152079106 -0.1647168791186478 2.3509886e-038
2.1105497835998643 1.4274440983874948 -0.01696154733512978 2.3509886e-038
0.4890593989420934 0.3454500151594715 -0.1530008101725594 2.3509886e-038
0.6771175957485189 0.4547989086770953 0.02292950704176902 2.3509886e-038
0.491080836986099 0.3443971897951764 -0.13124868671784168 2.3509886e-038
0.5612643973326293 0.37437259149782565 0.0424680986132869 2.3509886e-038
0.4843102894627095 0.33737527444476834 -0.10780294465072113 2.3509886e-038
0.5608335791298205 0.3716168213034592 0.06589861063054572 2.3509886e-038
0.6574501837595157 0.4547801980419471 -0.11746587445918386 2.3509886e-038
0.5233469540664493 0.3443417407196346 0.08343107162963323 2.3509886e-038
0.8519446883183179 0.5852229527697596 -0.11534486774594402 2.3509886e-038
1.2514789374280886 0.8175795023151967 0.2522303341366917 2.3509886e-038
0.43753925459538423 0.31350705187195005 -0.19937071356333336 2.3509886e-038
0.9760424169764258 0.6640887267683655 -0.09046152756864845 2.3509886e-038
0.46414609589361117 0.33007489790385347 -0.18872998568749283 2.3509886e-038
2.1488697241537182 1.4525366546438423 -0.10822914661498398 2.3509886e-038
0.46090707440019396 0.32547951731301483 -0.1654440516275375 2.3509886e-038
2.004226430750735 1.345433523012892 -0.01675688372109932 2.3509886e-038
0.48865808157930246 0.34257595260015805 -0.15267951876750385 2.3509886e-038
0.7119589938373838 0.4746403910402687 0.02381077133041784 2.3509886e-038
0.489056667783669 0.34040544367472203 -0.13056658831162013 2.3509886e-038
0.5608311435412153 0.37143890766270676 0.04216180965692118 2.3509886e-038
0.4903248892342614 0.3390057081348683 -0.10905339482446952 2.3509886e-038
0.5521423022521613 0.363137864088813 0.06454270627956274 2.3509886e-038
0.6573839150127381 0.4513297816671062 -0.11740490710582052 2.3509886e-038
0.5311808126065029 0.34689908188804025 0.08430914444143689 2.3509886e-038
0.8505757697679188 0.5801293952516886 -0.11518208516837833 2.3509886e-038
1.2492114762274802 0.8103405162950983 0.25083668441961426 2.3509886e-038
0.45236618325089556 0.32168474785391243 -0.20578568330472125 2.3509886e-038
0.9732606064242428 0.6574877242381297 -0.09032189000555645 2.3509886e-038
0.46366933481351813 0.3273737208991321 -0.18825855951244014 2.3509886e-038
2.202004310688367 1.4773228297364398 -0.11140206060723758 2.3509886e-038
0.4651657555583193 0.32601265090225484 -0.16673499299999622 2.3509886e-038
0.48023378932507876 0.3342627147052645 -0.14986656238173934 2.3509886e-038
0.7501942401007207 0.49658221342339776 0.024793172811464148 2.3509886e-038
0.5094527686479211 0.35206846237458234 -0.13587373900047717 2.3509886e-038
0.5737924979513758 0.3771876428512241 0.04284424736718043 2.3509886e-038
0.4801356257165777 0.3294670262003506 -0.1067017582077796 2.3509886e-038
0.5533374318863815 0.3613454909282131 0.06436659051137406 2.3509886e-038
0.6572245220566828 0.44800171405686806 -0.11733048163196494 2.3509886e-038
0.5522857362678371 0.35812839637444427 0.08729599995403564 2.3509886e-038
0.8492818550649878 0.5749021056584724 -0.11503068206989975 2.3509886e-038
1.2553407270761057 0.8082522794790781 0.2510854949639072 2.3509886e-038
0.45341169983010376 0.32011028801507024 -0.20593985080114047 2.3509886e-038
1.000370521822457 0.6707312515858864 -0.0929648091812799 2.3509886e-038
0.45701784467973094 0.32023838650389297 -0.1852729485357586 2.3509886e-038
1.8345389851996843 1.2215612510617144 -0.09322205264164268 2.3509886e-038
0.4662274730545633 0.3244120296828318 -0.166891576396894 2.3509886e-038
1.9015102535165207 1.2579218977626518 -0.017085143562447058 2.3509886e-038
0.4813806776757651 0.3325326546458821 -0.15003572274335852 2.3509886e-038
0.7569237186486052 0.49728476806998934 0.024703544626025448 2.3509886e-038
0.4977744560550267 0.3414043076793588 -0.13261860123530958 2.3509886e-038
0.5801132315688952 0.3784886624718682 0.04302364005797582 2.3509886e-038
0.4910235656372258 0.33439975834604274 -0.10903509984536225 2.3509886e-038
0.5579300399075667 0.3616198939004044 0.06456856620236642 2.3509886e-038
0.6505723239947542 0.44012891506578655 -0.1160957375063571 2.3509886e-038
0.5368550027317851 0.3455205117949822 0.08448890249997801 2.3509886e-038
0.8512618496573257 0.5719074907379766 -0.11532284122544464 2.3509886e-038
1.2581461888024006 0.8040075958150203 0.25067150905595725 2.3509886e-038
0.4637752447714806 0.32481950478420707 -0.2102874493577962 2.3509886e-038
1.0259236507474525 0.6826876804296845 -0.09546888832820685 2.3509886e-038
0.4627890599191431 0.32182436500383993 -0.18732705413298184 2.3509886e-038
1.8370868878406656 1.2140578920647318 -0.0937593300167333 2.3509886e-038
0.46739464176323825 0.322638906084014 -0.16706391874207732 2.3509886e-038
1.89938360450747 1.2466004640646924 -0.017696413903893815 2.3509886e-038
0.48098042814232966 0.32961683267324154 -0.1497152028697248 2.3509886e-038
0.8206071264158404 0.535074301313435 0.026446647139105328 2.3509886e-038
0.4892584369648058 0.33302653807606475 -0.1302132465212267 2.3509886e-038
0.5797473597461117 0.37541062485533094 0.042706774416942345 2.3509886e-038
0.5019512912407189 0.3392590190811269 -0.11137451170713822 2.3509886e-038
0.5625939259008828 0.36177104378984226 0.06475978814665373 2.3509886e-038
0.6587329835042258 0.44211760881188555 -0.11750267363013539 2.3509886e-038
0.5364415795263837 0.34253688907772606 0.08404127874605519 2.3509886e-038
0.8466170977893259 0.5644957825476177 -0.11471756238915154 2.3509886e-038
1.277593792286991 0.8103177696895886 0.25356514174959177 2.3509886e-038
0.4541107151267463 0.3156310778199216 -0.20557364217476742 2.3509886e-038
1.045035064990508 0.689894185919989 -0.09738481744933589 2.3509886e-038
0.4608214897870587 0.3178992630688411 -0.18623542142357946 2.3509886e-038
1.8414847042696831 1.2073263352854653 -0.09440947783872602 2.3509886e-038
0.45900379706316263 0.3144403294070698 -0.16383765538207545 2.3509886e-038
1.8668219083020885 1.2159924225679979 -0.017977922907479182 2.3509886e-038
0.4917212451418699 0.3344203965702113 -0.152870053247875 2.3509886e-038
0.8292638345769149 0.5364420350129168 0.02637304388664946 2.3509886e-038
0.48722178208937883 0.3289999685456362 -0.1295301346902007 2.3509886e-038
0.5693545895208836 0.3657665059038438 0.041645173831639654 2.3509886e-038
0.5031172970167466 0.3374705361966691 -0.11154694425968348 2.3509886e-038
0.5672032953873483 0.36199010477325 0.06495883190381155 2.3509886e-038
0.66025406086342 0.4397827127308816 -0.11772764257229251 2.3509886e-038
0.525905236150993 0.33328324091439154 0.08203678112491095 2.3509886e-038
0.8353976058836293 0.5525898358072425 -0.11322224931411767 2.3509886e-038
1.270529294954611 0.7994773912077677 0.25114821636041873 2.3509886e-038
0.4443891275730609 0.30651752686531575 -0.20085160546304642 2.3509886e-038
1.0374058240981117 0.679672468181082 -0.09680295218652331 2.3509886e-038
0.4760019664333672 0.32586840932120653 -0.192083177773976 2.3509886e-038
1.838950942516321 1.1965412195325953 -0.09468111833848453 2.3509886e-038
0.4696002826857781 0.3192492939521825 -0.16739019487871976 2.3509886e-038
1.852545942934654 1.1975686838771686 -0.018415846578933 2.3509886e-038
0.49126295315294893 0.3315658476333951 -0.15254137436971002 2.3509886e-038
0.8714965340610324 0.5595007304767059 0.027366438260630566 2.3509886e-038
0.5110652743215913 0.34247584172398277 -0.13572979873702276 2.3509886e-038
0.5689371098485585 0.3627368886596202 0.041335470004999625 2.3509886e-038
0.4895417911760416 0.32586892642539056 -0.10845417439178728 2.3509886e-038
0.560048015263651 0.354725128812257 0.06381496937865666 2.3509886e-038
0.6650674434006951 0.43962438772505874 -0.1185399473262233 2.3509886e-038
0.5320964973768466 0.33466206666579146 0.08264779168686312 2.3509886e-038
0.8406231573863274 0.5518254070314383 -0.11395448293261923 2.3509886e-038
1.2666112653831911 0.791000794148645 0.24941932149287005 2.3509886e-038
0.4531704677095052 0.31018326706056587 -0.2044965949658633 2.3509886e-038
1.046434979662905 0.680380942903353 -0.09777485086433009 2.3509886e-038
0.45985340549687104 0.31240631106878236 -0.18529212777515391 2.3509886e-038
1.8462300507307718 1.1926133538361503 -0.09543591204305728 2.3509886e-038
0.4675137458055156 0.3154032301761974 -0.16642018907207234 2.3509886e-038
1.860048326210386 1.193296791348513 -0.01906331887811652 2.3509886e-038
0.4827453444064119 0.32332984084014454 -0.14971563347606054 2.3509886e-038
0.8397072416192297 0.5350046608544317 0.026034238001885895 2.3509886e-038
0.5056785945158098 0.3364099884193624 -0.13416974380127233 2.3509886e-038
0.5768766370630788 0.365150649006802 0.04164577712654566 2.3509886e-038
0.4972257376813587 0.3284607652915943 -0.1100733026722476 2.3509886e-038
0.5612765519145807 0.3528108150383053 0.06363283200660175 2.3509886e-038
0.6698878813315982 0.4394372077166142 -0.11935357500523333 2.3509886e-038
0.5449730149664682 0.3402954280915107 0.08430574601896582 2.3509886e-038
0.8424285066709065 0.5490097325412793 -0.11422217524441336 2.3509886e-038
1.2759263469768005 0.791089011980298 0.2503483998730909 2.3509886e-038
0.4541782150589885 0.3086067390402506 -0.2046460946801899 2.3509886e-038
1.0754659806377003 0.6941947710746337 -0.10061290044292567 2.3509886e-038
0.4545776219097464 0.3065725321428926 -0.18291121449599812 2.3509886e-038
1.8417292596326813 1.181100090647815 -0.09557944241080539 2.3509886e-038
0.4685405445582621 0.31379507722567435 -0.16657254291623613 2.3509886e-038
1.8605899598437543 1.1850134208442564 -0.01960873823491807 2.3509886e-038
0.4902496774870163 0.3259674255967747 -0.15187028562813135 2.3509886e-038
0.8870859507130741 0.561106280103526 0.02717082737951665 2.3509886e-038
0.5084054216254406 0.33576547685278246 -0.13476453074588893 2.3509886e-038
0.5797674759409374 0.3643297180193431 0.041588852100195195 2.3509886e-038
0.49500916626814784 0.3246209009189394 -0.10950488892489821 2.3509886e-038
0.5556817426114753 0.34677204381616417 0.06269819813588284 2.3509886e-038
0.6597209595528177 0.429625506975802 -0.11750018211698426 2.3509886e-038
0.5393522267920877 0.3343554588282036 0.08310057948038602 2.3509886e-038
0.8408876252841467 0.5440291172079343 -0.11403626896343991 2.3509886e-038
1.2835754565430366 0.790091291654205 0.250946499410017 2.3509886e-038
0.46605539492091763 0.314361959094485 -0.20968771686441495 2.3509886e-038
1.094526242425503 0.7013681845820064 -0.10252297105973059 2.3509886e-038
0.45872733666248255 0.30711096203671007 -0.18432615486368953 2.3509886e-038
1.8356900835843115 1.168236262326872 -0.09565770068036236 2.3509886e-038
0.4679648723047811 0.3111216213488581 -0.16615719734194928 2.3509886e-038
1.8712395288973729 1.1831519066193112 -0.020259591623210532 2.3509886e-038
0.4896955751567037 0.323223700601252 -0.1515279831606267 2.3509886e-038
0.866917275349125 0.5443734667478587 0.0262309774223127 2.3509886e-038
0.4899597099859564 0.32110046343335785 -0.1297459684496779 2.3509886e-038
0.5776401217975602 0.36022456686042137 0.04116012805479849 2.3509886e-038
0.5010692979364658 0.3260751977161299 -0.11076369820967982 2.3509886e-038
0.5602078354287519 0.3470644381759721 0.06290872509939113 2.3509886e-038
0.6627861308060273 0.42847815886967944 -0.11800460038121713 2.3509886e-038
0.5371333592432808 0.3304427546061916 0.08240997045247245 2.3509886e-038
0.8260392429951977 0.5303290312231368 -0.11204651650723887 2.3509886e-038
1.2829502589738975 0.7836918159405444 0.24988300957719434 2.3509886e-038
0.45005365691758936 0.30110916638235563 -0.20216079939565645 2.3509886e-038
1.1104028839477902 0.706087416292291 -0.10414481239263083 2.3509886e-038
0.4629382858896442 0.3075402039253131 -0.18575038421121592 2.3509886e-038
1.8380308991520793 1.160763010628972 -0.09616874340659189 2.3509886e-038
0.47068482036593395 0.31039826287300987 -0.16689129388739016 2.3509886e-038
1.8721402123381041 1.1742042783199003 -0.020859844670023442 2.3509886e-038
0.5070592828019025 0.3319784367983447 -0.15670773780945102 2.3509886e-038
0.9027364091535998 0.5625264141305579 0.02696475563488701 2.3509886e-038
0.49597254816531633 0.3225390196564125 -0.1312090414560843 2.3509886e-038
0.568700851737179 0.3519360821737765 0.04025371573105346 2.3509886e-038
0.503841617098817 0.3253567067471123 -0.1112953052611961 2.3509886e-038
0.5750401222126096 0.35339287561271443 0.06423684447874267 2.3509886e-038
0.6676633417012154 0.4281469006901783 -0.11882749552877342 2.3509886e-038
0.5484933781655471 0.33472308030711506 0.08378250368016635 2.3509886e-038
0.8312167366069043 0.5295517570053325 -0.11277296701055098 2.3509886e-038
1.2907322100072267 0.7824194629844876 0.25046038017301886 2.3509886e-038
0.4526437842944806 0.30049774526050577 -0.20301412854962175 2.3509886e-038
1.1163302548727265 0.7041246164468256 -0.1048419843445176 2.3509886e-038
0.47354585798275484 0.3120319270765394 -0.18972207674690883 2.3509886e-038
1.8490072215559028 1.1582704111012065 -0.09715063228538988 2.3509886e-038
0.46853890307369644 0.30659440397925153 -0.16591326173857135 2.3509886e-038
1.8626116716183312 1.1592499377896714 -0.021308383385295643 2.3509886e-038
0.5000794726837504 0.324878659385049 -0.15437128017821533 2.3509886e-038
0.9013761269289474 0.5571495877692539 0.026560497787606302 2.3509886e-038
0.49713488007920814 0.3206737901139761 -0.13138219065209383 2.3509886e-038
0.5716807073972136 0.3509281599928748 0.04018285500857366 2.3509886e-038
0.49171471970288927 0.31507484207085384 -0.10853827158903595 2.3509886e-038
0.564364807799567 0.34417009605054516 0.06273183609473673 2.3509886e-038
0.6724731980609516 0.4279041834190159 -0.11964065223345971 2.3509886e-038
0.5394751777131108 0.32669337187691583 0.0820612481870922 2.3509886e-038
0.829771376186919 0.5243513990004642 -0.1126023066050969 2.3509886e-038
1.2800556013145425 0.769699249767759 0.24742073310904855 2.3509886e-038
0.4552353788401954 0.29987103231634393 -0.20386785911010552 2.3509886e-038
1.1153766488258083 0.6980931616645428 -0.10488593390977898 2.3509886e-038
0.4714388728431343 0.3082325922145338 -0.18861117393384264 2.3509886e-038
1.8665780851930993 1.1602551329631097 -0.09846258933617172 2.3509886e-038
0.4711972994765462 0.30594225578457146 -0.1666386031602351 2.3509886e-038
1.8700176868913632 1.1548841360353683 -0.021945271365717584 2.3509886e-038
0.49305702672013785 0.3178334171471258 -0.15202866853114977 2.3509886e-038
0.9101195279395162 0.5582168822332003 0.026471512921378587 2.3509886e-038
0.509745851717253 0.326260524491242 -0.1345853893426544 2.3509886e-038
0.5814200117210118 0.35415629922887726 0.0405970096797624 2.3509886e-038
0.49445632863640077 0.314378117438617 -0.1090657246457086 2.3509886e-038
0.563853400649084 0.3412094825068558 0.062365582379418805 2.3509886e-038
0.673944840184928 0.4255208840920845 -0.11986021050539533 2.3509886e-038
0.5576080128717616 0.3350740052242468 0.08446748686069502 2.3509886e-038
0.8315764487747495 0.5214256782628799 -0.11287164753362294 2.3509886e-038
1.28611595077833 0.7673896512078731 0.24767476119971688 2.3509886e-038
0.4640998233313684 0.3033284043038636 -0.2075263755984822 2.3509886e-038
1.1143948552072371 0.6920772165684211 -0.10492613717207457 2.3509886e-038
0.4629481397007821 0.30032431626913136 -0.18495512043475643 2.3509886e-038
1.9777135194207411 1.2198185355775666 -0.10473363348114212 2.3509886e-038
0.48191572249348474 0.3104666702189217 -0.17021067405213935 2.3509886e-038
1.8740051502908246 1.1483911791720451 -0.02254071212727815 2.3509886e-038
0.49414680614797146 0.3160581139974142 -0.15219141509741782 2.3509886e-038
0.9035089541990041 0.5498752473209823 0.02593822246500002 2.3509886e-038
0.5125135435199712 0.325481734542063 -0.13518731450139454 2.3509886e-038
0.5877713309970318 0.3552558570544646 0.04076951561746245 2.3509886e-038
0.5121652400658594 0.32310700534680037 -0.11289240440104006 2.3509886e-038
0.5616211352806929 0.33723130048091676 0.061813277024627133 2.3509886e-038
0.6620004133611433 0.4147328524476965 -0.11769509590985719 2.3509886e-038
0.5553626665331606 0.33114532928692997 0.08377992816864246 2.3509886e-038
0.836745294148503 0.520592778830563 -0.11359787271596916 2.3509886e-038
1.297269389775904 0.7680640759599733 0.24890575663902392 2.3509886e-038
0.45727940930513766 0.2965347206190198 -0.2041732117910332 2.3509886e-038
1.1422380229895286 0.7038557030749109 -0.10768269711544783 2.3509886e-038
0.465570132097229 0.2996654942742236 -0.18574486843423976 2.3509886e-038
1.9768080980254015 1.2097876472047546 -0.10509085909914344 2.3509886e-038
0.4781330024060877 0.305624854425508 -0.1686602450351412 2.3509886e-038
1.905310658801333 1.1585078763392875 -0.02347036572315997 2.3509886e-038
0.4952303788742288 0.31427909705427715 -0.1523534461973842 2.3509886e-038
0.9122556486732898 0.5508882233441541 0.025847997066734463 2.3509886e-038
0.500418149267085 0.3153210428462897 -0.1318725741518951 2.3509886e-038
0.583863834398128 0.3501549277923171 0.04023174169564994 2.3509886e-038
0.496610411214455 0.31085121992594555 -0.10938768530673079 2.3509886e-038
0.5679207761681812 0.3383683111268772 0.06220065459910404 2.3509886e-038
0.6667858134045112 0.4144746283146742 -0.11850544681421774 2.3509886e-038
0.5377329005810068 0.3181460421364025 0.08078704063875133 2.3509886e-038
