VERSION 0.7
FIELDS x y z rgb
SIZE 4 4 4 4
TYPE F F F F
COUNT 1 1 1 1
WIDTH 662
HEIGHT 1
VIEWPOINT 0 0 0 1 0 0 0
POINTS 662
DATA ascii
1.3176021399210218 -2.3769399644345266 -0.15285923614982655 2.3509886e-038
1.1077033970941543 -2.1251982524025785 -0.7393178185760791 2.3509886e-038
1.317167674400482 -2.3585002455543007 -0.05787798465658202 2.3509886e-038
1.3036829761170787 -2.4792062409440123 -0.7586510257753984 2.3509886e-038
2.9358872800763027 -5.215975513278211 0.07976095606371392 2.3509886e-038
1.601841374114163 -3.021358339435311 -0.7997776635354481 2.3509886e-038
2.9256060434346476 -5.159379546403585 0.28544380114301693 2.3509886e-038
5.311055898904817 -9.297076602128051 0.8891514539508072 2.3509886e-038
2.7386777050528957 -5.082131696348246 -0.9331055677066744 2.3509886e-038
5.367390076286975 -9.322457104381112 1.270883873779462 2.3509886e-038
1.3105990766878042 -2.4133260455200807 -0.3464280446263312 2.3509886e-038
5.399888788591232 -9.30908848398087 1.6524660045142223 2.3509886e-038
1.30036687734651 -2.3762834453034687 -0.24642335195012477 2.3509886e-038
5.442726611374487 -9.312498609923075 2.0422018085553937 2.3509886e-038
0.9520206319386815 -1.858501234003703 -0.7236914961732552 2.3509886e-038
1.307428845004579 -2.3780557148124433 -0.15167946499759344 2.3509886e-038
1.1020514790224 -2.1327364914091067 -0.7396366768507139 2.3509886e-038
1.306650934387036 -2.506288994652484 -0.7644377238190112 2.3509886e-038
2.915857744824836 -5.222586685817863 0.08180291104583903 2.3509886e-038
1.5931372133176684 -3.03068037675406 -0.7994676128024958 2.3509886e-038
2.916550103319353 -5.185027202722252 0.28838782769815907 2.3509886e-038
5.282805080970521 -9.32196660336197 0.893548728233446 2.3509886e-038
2.723847355528747 -5.099446358115331 -0.9322274656986687 2.3509886e-038
5.331204452366169 -9.333539757206006 1.273682361786169 2.3509886e-038
1.2965678675025931 -2.4075174985559604 -0.3439577387672047 2.3509886e-038
5.365733894640374 -9.323593159103615 1.655590547563948 2.3509886e-038
1.2921172337334994 -2.3808781573601996 -0.24546642841173932 2.3509886e-038
5.40167722633937 -9.315114592553172 2.0425801165789927 2.3509886e-038
0.9443587578243471 -1.860593902269878 -0.722247596454638 2.3509886e-038
1.2886611577464038 -2.3633488881903526 -0.14950204185853383 2.3509886e-038
1.0998468044794945 -2.147067922198049 -0.7423033341539698 2.3509886e-038
1.3113839031625365 -2.386894431035512 -0.05643428114115734 2.3509886e-038
1.2957110570057957 -2.5079395304393506 -0.7623311102958237 2.3509886e-038
2.8987884369377923 -5.236616789677347 0.08406459118800569 2.3509886e-038
1.5811590326420384 -3.035088631273462 -0.7977279668525301 2.3509886e-038
2.8946954631885076 -5.187995784500355 0.29008198948588837 2.3509886e-038
5.246625905805897 -9.332872989519359 0.8966264211189148 2.3509886e-038
2.723677352473474 -5.142405623481414 -0.9362056526585132 2.3509886e-038
5.289465937822417 -9.338464548914493 1.2757290730170179 2.3509886e-038
1.2821779789073708 -2.401868455213574 -0.341445222608503 2.3509886e-038
5.333843297414745 -9.345729302747372 1.6601292146462514 2.3509886e-038
1.2819614055901063 -2.381936951025886 -0.24414724410722616 2.3509886e-038
5.37047476047611 -9.334588264627973 2.0466888756334924 2.3509886e-038
0.9421179063957872 -1.8726074548490486 -0.7247619604828588 2.3509886e-038
1.2923935792000059 -2.390925153765029 -0.14993430440929523 2.3509886e-038
1.082471538469916 -2.1326368012765053 -0.7349288382659813 2.3509886e-038
1.3098037461482612 -2.4037363846417827 -0.05575832262483238 2.3509886e-038
1.2922581193936287 -2.5230525297407187 -0.7644413664915728 2.3509886e-038
2.8854495930989383 -5.255353890195187 0.08631609438869425 2.3509886e-038
1.5759586983556133 -3.051274766240739 -0.7992213701998216 2.3509886e-038
2.868091014050179 -5.184372251801402 0.2914867491565223 2.3509886e-038
5.216257770785088 -9.354083488033636 0.9007133526369882 2.3509886e-038
2.7122283427954414 -5.164450022788061 -0.9363486762578266 2.3509886e-038
5.255216689935659 -9.352715008094307 1.2790069702841342 2.3509886e-038
1.273832357739384 -2.406442255092387 -0.34047602093774443 2.3509886e-038
5.297638881813038 -9.356548454648948 1.6626587293933746 2.3509886e-038
1.2718154760863514 -2.382952931104926 -0.2428286336352003 2.3509886e-038
5.335298370125212 -9.34713067013352 2.0493124913808156 2.3509886e-038
0.9372749889498417 -1.8795549546395351 -0.7253090456194058 2.3509886e-038
1.2835699207592155 -2.3934651979243338 -0.14890941594100204 2.3509886e-038
1.0840068088082009 -2.1535665703197537 -0.7399766964908125 2.3509886e-038
1.4545248956600914 -2.6915067097040497 -0.061233326847118186 2.3509886e-038
1.2808470736109703 -2.5226772576055723 -0.761860221066611 2.3509886e-038
2.868192806242615 -5.267034274660237 0.08846165953903606 2.3509886e-038
1.573862197773802 -3.0723758858693437 -0.8021230066178815 2.3509886e-038
2.856798382510455 -5.204168341861101 0.2940626021201789 2.3509886e-038
5.175198333941077 -9.356009164182124 0.902960739360176 2.3509886e-038
2.7052179168165384 -5.19523580375939 -0.9380575444574291 2.3509886e-038
5.226412059243939 -9.372899892142788 1.2830535727294787 2.3509886e-038
1.2686585168310924 -2.416030824703397 -0.34029562999879714 2.3509886e-038
5.261098345041258 -9.362910372498082 1.6643923780612617 2.3509886e-038
1.278449819324596 -2.4156189908666814 -0.2447209516894771 2.3509886e-038
5.3030058653014835 -9.364667994775353 2.053065187136238 2.3509886e-038
0.9310478737191489 -1.882926043153041 -0.7245852306774991 2.3509886e-038
1.2790145245739484 -2.4050135419949115 -0.1483790476482057 2.3509886e-038
1.0756483124854355 -2.155915909270444 -0.7385182116492004 2.3509886e-038
1.4433023269800236 -2.6930292297394294 -0.06006972726300355 2.3509886e-038
1.271632604565926 -2.5254648088371168 -0.7603706966613211 2.3509886e-038
2.851803479069165 -5.278165428438641 0.09050756068813659 2.3509886e-038
1.5684620338949675 -3.0885768058046965 -0.8035917444536826 2.3509886e-038
2.8559668207023634 -5.245481815453981 0.29795177551869334 2.3509886e-038
1.2864578857488158 -2.512268028637356 -0.5521881469704277 2.3509886e-038
5.1456849203714015 -9.378728911334914 0.9072333363322551 2.3509886e-038
2.6898723349056466 -5.208002520699791 -0.9366938645992913 2.3509886e-038
5.196868427003558 -9.395605287663269 1.2875381255852552 2.3509886e-038
1.2666810655336087 -2.432879355881731 -0.34104718988019644 2.3509886e-038
5.224876843979068 -9.373452748952106 1.6669282830799927 2.3509886e-038
1.2672847390847815 -2.414846192225103 -0.24321265933227443 2.3509886e-038
5.268728691977868 -9.378665610447898 2.0560762862940694 2.3509886e-038
0.9211527245336418 -1.8796602505091315 -0.7212154304093328 2.3509886e-038
1.0774603162155083 -2.178803075037369 -0.7440841100355355 2.3509886e-038
1.4367778076989348 -2.703334973403553 -0.05909918558348412 2.3509886e-038
1.2671492368830028 -2.5388232334316063 -0.7619409892301416 2.3509886e-038
1.5542081497461442 -3.0873750588485214 -0.8005362650659145 2.3509886e-038
2.838746007129177 -5.256971251226989 0.3001657239306239 2.3509886e-038
1.267056086812759 -2.4959432389970333 -0.5465720393726654 2.3509886e-038
5.104653692798676 -9.380345773138156 0.9094819642187253 2.3509886e-038
2.6735716738994224 -5.221205088071147 -0.9352179200094297 2.3509886e-038
5.1586364884514815 -9.402545198755087 1.2898861523470004 2.3509886e-038
1.3083023664608586 -2.534401329927901 -0.35359743465257465 2.3509886e-038
5.200127607037539 -9.404605312931091 1.6731590547311326 2.3509886e-038
1.2487853928821457 -2.3998858129760468 -0.24029082500721116 2.3509886e-038
5.2305856775442265 -9.385675684730268 2.0575896445224346 2.3509886e-038
0.9129459730321172 -1.8797476112300295 -0.7191510472722329 2.3509886e-038
4.90856548898385 -9.386768696289202 -0.5694233671845432 2.3509886e-038
1.0648163356197942 -2.1725382937711273 -0.7396919993640727 2.3509886e-038
1.430199385336905 -2.7136276443469938 -0.0581216977528963 2.3509886e-038
1.251454026324585 -2.529673837012762 -0.7567680129851397 2.3509886e-038
3.4007417762027705 -6.399637370619626 0.11448020112896873 2.3509886e-038
1.5330211247513634 -3.0721622513953615 -0.7938788640485119 2.3509886e-038
4.977195584160986 -9.293660734108 0.5334206106368446 2.3509886e-038
1.2513152298625836 -2.4865236428523416 -0.5425009152068709 2.3509886e-038
5.075967594686599 -9.404592670084389 0.9139433650155642 2.3509886e-038
2.6589787672243737 -5.240126221068657 -0.934569845472879 2.3509886e-038
5.116616819506335 -9.402359870826665 1.291277408832777 2.3509886e-038
1.3013067034634196 -2.542603112747674 -0.35306325428875773 2.3509886e-038
5.161910403198563 -9.411442550758014 1.6750940097461307 2.3509886e-038
1.2495867682080397 -2.422004964304668 -0.2410830411281223 2.3509886e-038
5.196260138139487 -9.399408609807873 2.0606108445545575 2.3509886e-038
0.9134424827335054 -1.8987211320644963 -0.7242004358576606 2.3509886e-038
1.0572448934391931 -2.1765324878465915 -0.7388103137288773 2.3509886e-038
1.412455244472985 -2.702638865120638 -0.05669150809424839 2.3509886e-038
1.203942881251231 -2.4564841434821605 -0.7324148225956408 2.3509886e-038
3.297301934390516 -6.259752121517219 0.11441148415648406 2.3509886e-038
1.2462821219236988 -2.520807765520272 -0.6490808614309194 2.3509886e-038
4.936580507480457 -9.294732944173056 0.5362526996238595 2.3509886e-038
1.2426657805306627 -2.4910767858128335 -0.5414935469636183 2.3509886e-038
5.041530396649462 -9.418208459644482 0.9173928552189539 2.3509886e-038
5.084350834110364 -9.423812592709817 1.2957356765496932 2.3509886e-038
1.281256467979567 -2.5262350022070343 -0.3490475933227421 2.3509886e-038
5.125859719610808 -9.425919887080243 1.6784551361189504 2.3509886e-038
3.023106766464125 -5.909968131644863 -0.5848140767031067 2.3509886e-038
5.167560469211283 -9.423348266851916 2.065904061048429 2.3509886e-038
0.9092650483373126 -1.9073074687119482 -0.7253773253664884 2.3509886e-038
3.520843864112303 -6.851471020259889 -0.40841611600739014 2.3509886e-038
1.050940137736554 -2.1841450015798474 -0.7390489904120809 2.3509886e-038
1.4053714885813013 -2.713110926883399 -0.055653832176901785 2.3509886e-038
1.1928549350011333 -2.455741463883048 -0.729868388987593 2.3509886e-038
3.2774608910247367 -6.27462901112083 0.1170054058404636 2.3509886e-038
1.2143530346775735 -2.4781366749968967 -0.635932539156663 2.3509886e-038
4.897187166465786 -9.30177965313888 0.5395776845439384 2.3509886e-038
1.2222589806412674 -2.472942770659175 -0.5354787192793531 2.3509886e-038
5.005432756313974 -9.432542889000713 0.9210383644582043 2.3509886e-038
1.2526374679429506 -2.5120517036410304 -0.44436544425156854 2.3509886e-038
5.051748911350138 -9.440807070162876 1.2995352761056735 2.3509886e-038
5.087643082895467 -9.432459335926382 1.680394605962407 2.3509886e-038
5.131500419051243 -9.437690433030665 2.0691319512502044 2.3509886e-038
0.9018058399684151 -1.9090474671510667 -0.7239532415757945 2.3509886e-038
1.0466233994528245 -2.1949978809273487 -0.7404920671772754 2.3509886e-038
1.3886563515967731 -2.7037544962435254 -0.05427147612783817 2.3509886e-038
1.2337554057489193 -2.562896716654245 -0.75930555517339 2.3509886e-038
3.2455973285175928 -6.266360375043696 0.11916963060144425 2.3509886e-038
4.876069006095131 -9.339694600898753 0.5445723370830864 2.3509886e-038
1.2179761467052483 -2.4862087028021733 -0.536377741620411 2.3509886e-038
4.968141160946754 -9.440609289300134 0.9239829851788275 2.3509886e-038
1.2316495327258568 -2.4917729975717986 -0.4389791625631787 2.3509886e-038
5.020958881953117 -9.46119012890143 1.3038263923976867 2.3509886e-038
1.2521762026034953 -2.5122527033351068 -0.34383829391799314 2.3509886e-038
5.053167801578182 -9.445814229180536 1.6835767651245348 2.3509886e-038
5.095163014194202 -9.447600877121117 2.071419056613558 2.3509886e-038
0.8927425909755693 -1.9073308779477625 -0.7212326564604086 2.3509886e-038
1.0422440282007983 -2.2058496497839464 -0.7419273845995036 2.3509886e-038
1.390641891023598 -2.7297128775147996 -0.05365261679357805 2.3509886e-038
1.2331505973390988 -2.584924156052226 -0.7634155329458421 2.3509886e-038
3.217490444273685 -6.265057511654415 0.12146122280002247 2.3509886e-038
1.5098869991853372 -3.136898075693739 -0.7995616229157312 2.3509886e-038
4.834536864391792 -9.338555049169289 0.5473071485407022 2.3509886e-038
4.935261607318601 -9.45298975536509 0.9272575786278132 2.3509886e-038
4.983605364348961 -9.46917756119195 1.3064333253940643 2.3509886e-038
5.022149144044926 -9.461697863061158 1.6871962393516649 2.3509886e-038
5.060452577024421 -9.456538560207997 2.073518706581897 2.3509886e-038
0.8896101745245921 -1.917419737439101 -0.7230845908245882 2.3509886e-038
4.104568354297513 -8.192976410267827 -0.47607326522008364 2.3509886e-038
1.035754536040685 -2.2113036202097835 -0.7416563840282184 2.3509886e-038
1.3807487594179126 -2.732510416517023 -0.05256878910058785 2.3509886e-038
1.2245988419284406 -2.5892806940181368 -0.7624173072280327 2.3509886e-038
3.195955932947321 -6.273779075483273 0.12383381059341503 2.3509886e-038
1.4961585268414668 -3.1351385654790915 -0.7965630064729221 2.3509886e-038
4.80928426775578 -9.364848724906972 0.5515219701141856 2.3509886e-038
1.901149569752386 -3.947143375686912 -0.8456578481745485 2.3509886e-038
4.906009078120926 -9.472335699033206 0.9312343681931075 2.3509886e-038
4.945135857545758 -9.470911338330051 1.3081221865528825 2.3509886e-038
4.99568094971089 -9.48621717408944 1.6923830081461695 2.3509886e-038
1.2501952488162424 -2.529319257879319 -0.24449988761562896 2.3509886e-038
5.025731049967982 -9.465351482087696 2.0756214188743876 2.3509886e-038
0.8832597684468104 -1.9206325274993998 -0.7223429797483638 2.3509886e-038
4.084675708982862 -8.22094037533959 -0.4737443747418171 2.3509886e-038
1.0252105166040442 -2.208060099739576 -0.7384791845591328 2.3509886e-038
1.3650032196081527 -2.724783545040268 -0.051226793258914285 2.3509886e-038
1.2160340744632832 -2.593607786306358 -0.7614170071557229 2.3509886e-038
3.1698926193263213 -6.273499734724119 0.12603084215623905 2.3509886e-038
1.4907959698137816 -3.1509448479295323 -0.7980303522812584 2.3509886e-038
4.764876547641338 -9.353699129940528 0.5535407774188161 2.3509886e-038
1.8874224165538147 -3.9540682164454894 -0.844054460461668 2.3509886e-038
4.8750409925137745 -9.492414340922773 0.9354137058484722 2.3509886e-038
2.6118339881307566 -5.42435994691448 -0.9441827260447955 2.3509886e-038
4.913102809221076 -9.484829662982943 1.3115133444793785 2.3509886e-038
2.8909351983118965 -5.950308273016192 -0.8032585074369887 2.3509886e-038
4.960142099725545 -9.497481679572676 1.69527642072177 2.3509886e-038
4.996691499118094 -9.488753206666747 2.080965498739558 2.3509886e-038
0.8793664560684663 -1.9310491050289178 -0.7241051741040754 2.3509886e-038
4.663337643934231 -9.46802100129209 -0.5408295621299232 2.3509886e-038
1.0223169632471283 -2.2223493139275354 -0.7410593767669043 2.3509886e-038
1.2106220717735832 -2.6071237713945496 -0.762874043964441 2.3509886e-038
3.1524317567487907 -6.295658896069272 0.12891879084291002 2.3509886e-038
1.482591950478971 -3.1637682973274144 -0.7984671008558994 2.3509886e-038
4.736985966234117 -9.378819860029914 0.5578565836568568 2.3509886e-038
1.877870466417255 -3.969821609198645 -0.8443353111660248 2.3509886e-038
4.838567079279576 -9.501737868181488 0.9385523682136174 2.3509886e-038
2.601491513408147 -5.451613449339258 -0.945070819600017 2.3509886e-038
4.881374095617316 -9.50733601437737 1.3162734025917366 2.3509886e-038
4.913862728920437 -9.49188182715718 1.695233224659054 2.3509886e-038
2.8987416717072207 -5.9689047395747 -0.5701588355194136 2.3509886e-038
4.969365409233465 -9.515545434949042 2.0870872575969432 2.3509886e-038
0.8757480948191245 -1.941297572396143 -0.7258990310491322 2.3509886e-038
1.0157727935736647 -2.2298723139393535 -0.7412668507987783 2.3509886e-038
1.1999282869592776 -2.6081168275370716 -0.7607879024779016 2.3509886e-038
3.1199470516963252 -6.284989729996346 0.13102164529078142 2.3509886e-038
1.4756873634306782 -3.1780713620618846 -0.799403825846497 2.3509886e-038
4.699305173972583 -9.388585394609459 0.5614176390427161 2.3509886e-038
1.8642056943764342 -3.978785763210655 -0.8430167324340672 2.3509886e-038
4.79865071851484 -9.508173530615764 0.9415338123197281 2.3509886e-038
2.5925718256186765 -5.484690821984463 -0.946752845694204 2.3509886e-038
4.8493859885742125 -9.525387602109593 1.3203647231345133 2.3509886e-038
2.845959625123762 -5.966015609057215 -0.7975811860959039 2.3509886e-038
4.883753712855486 -9.513384358831162 1.7000131393187248 2.3509886e-038
2.8787099420126916 -5.9832566649093035 -0.5679547989849397 2.3509886e-038
4.931233559815926 -9.52563415236635 2.089595155422858 2.3509886e-038
0.8624637881752406 -1.9309686907098482 -0.719911542885707 2.3509886e-038
1.0087914303307939 -2.235441238202733 -0.7409363469580408 2.3509886e-038
1.1895900991233563 -2.611048556151325 -0.7591606142523866 2.3509886e-038
3.095313874006914 -6.292645302970644 0.13362100321784176 2.3509886e-038
1.4608164622597566 -3.176691388771882 -0.796268799071004 2.3509886e-038
4.671226340204251 -9.413507961701894 0.5657599476527593 2.3509886e-038
1.8594682636953412 -4.005179982298801 -0.8455352447773059 2.3509886e-038
4.765743537185068 -9.524328310031684 0.9453843685659633 2.3509886e-038
2.573510255346174 -5.494044503533843 -0.944522339139402 2.3509886e-038
4.809425668633189 -9.531727608779963 1.322937295434325 2.3509886e-038
2.8309873578421216 -5.991048564407411 -0.7969454546074957 2.3509886e-038
4.8510153655171955 -9.533831812070396 1.704683415490721 2.3509886e-038
2.856224837439563 -5.989837451564369 -0.5651847579269842 2.3509886e-038
4.89294857430993 -9.531275822330464 2.0911472705227014 2.3509886e-038
0.8572644882818505 -1.937717877424931 -0.7204111790344039 2.3509886e-038
1.0021749264300106 -2.2429272615372695 -0.7411343008593243 2.3509886e-038
1.1836811579024382 -2.6225298680188813 -0.76013977241066 2.3509886e-038
3.070877271809956 -6.297878510744423 0.1360575223418269 2.3509886e-038
1.449761415703959 -3.182075476828831 -0.7949745559480659 2.3509886e-038
4.6317090234366995 -9.419423087564333 0.569117680916601 2.3509886e-038
1.8514067239074836 -4.026577069457272 -0.8468256304637469 2.3509886e-038
4.731126737191925 -9.54116841688748 0.9494373425151386 2.3509886e-038
2.560946844431778 -5.519929321589701 -0.9449369789851643 2.3509886e-038
4.767578121241964 -9.530006037903044 1.3243310063750164 2.3509886e-038
2.805123170895996 -5.990371456397492 -0.7930801217860775 2.3509886e-038
4.821614189619143 -9.55689437743561 1.7098045571641824 2.3509886e-038
2.836945751482027 -6.005845439033444 -0.5631351603377032 2.3509886e-038
4.85481063803724 -9.541062748088248 2.093660814000965 2.3509886e-038
0.8547291040131579 -1.9515570547736316 -0.7234386325504469 2.3509886e-038
3.879563277782928 -8.168328551043846 -0.44981027962181885 2.3509886e-038
0.9935860108742578 -2.2449530681063044 -0.7396420702719233 2.3509886e-038
1.320968842605154 -2.7575924092737947 -0.045719080828836245 2.3509886e-038
1.1772484415294318 -2.634223718952913 -0.7610569556022029 2.3509886e-038
3.0462230834704487 -6.3053402978043875 0.13866248160261696 2.3509886e-038
1.4445520376421845 -3.201909058457102 -0.7971536371406176 2.3509886e-038
4.594710746193279 -9.426187654093376 0.5723942282275363 2.3509886e-038
1.836590262308864 -4.031541882642015 -0.8448107282397608 2.3509886e-038
4.7016211873315505 -9.564236248700531 0.9540189797993839 2.3509886e-038
2.5566199625258186 -5.56149730834582 -0.9482002601003174 2.3509886e-038
4.736487962348347 -9.553792446033501 1.329376030377877 2.3509886e-038
2.7765918117638844 -5.986479191009173 -0.7886220515183922 2.3509886e-038
4.781626876832124 -9.562990089185474 1.7119714365516963 2.3509886e-038
2.8203202923099533 -6.024903091995039 -0.5615334351238389 2.3509886e-038
4.822730736932527 -9.558668870761823 2.097907634225476 2.3509886e-038
0.851211122481766 -1.9595413852291748 -0.7246884615717608 2.3509886e-038
3.304086982813133 -7.013197052761028 -0.3830603094520884 2.3509886e-038
0.9842391953719474 -2.2430645784037515 -0.737088360437028 2.3509886e-038
1.167102509414286 -2.6326526636780923 -0.7586149947888003 2.3509886e-038
3.025922904275638 -6.310624998678998 0.14075857679988846 2.3509886e-038
1.4398629257912687 -3.21712241145453 -0.7986956851346589 2.3509886e-038
4.565335494570402 -9.4402405397541 0.5758371706646725 2.3509886e-038
1.8207370780634096 -4.030413919504951 -0.8418359527540646 2.3509886e-038
4.6692093914768185 -9.573104291357305 0.956974009585009 2.3509886e-038
2.5523450902777425 -5.598582337313919 -0.9510496265509516 2.3509886e-038
4.7092803270869386 -9.568986705244054 1.3329158361929414 2.3509886e-038
2.760578170563207 -5.998524948195948 -0.7870236594391471 2.3509886e-038
4.748261579254443 -9.565786480326715 1.7133642023968472 2.3509886e-038
2.792268001081029 -6.01399777175336 -0.5574840163242962 2.3509886e-038
4.797408753323531 -9.581613817322014 2.103317070910415 2.3509886e-038
0.8417938247985353 -1.957731211826267 -0.7219223308473095 2.3509886e-038
0.9802411324250633 -2.2555612972482924 -0.739049873874567 2.3509886e-038
1.298528585584102 -2.757215922945222 -0.04344532064542815 2.3509886e-038
1.1629196805894442 -2.6496206141455443 -0.7610475335391649 2.3509886e-038
2.999530619203084 -6.314297181811988 0.14328704495276756 2.3509886e-038
1.4281092455604885 -3.222698525967165 -0.7973173687036135 2.3509886e-038
4.530050987106368 -9.450344618091684 0.5793400787564678 2.3509886e-038
1.8155530007521812 -4.056784927606556 -0.8442983478663473 2.3509886e-038
4.630876997965947 -9.578044971042274 0.9597811560410987 2.3509886e-038
2.536954437217026 -5.616805694900158 -0.9502913704310205 2.3509886e-038
4.676259121112606 -9.589016468683482 1.3374903348486242 2.3509886e-038
2.74034961861655 -6.012494486414112 -0.7849298305691366 2.3509886e-038
4.711798580929767 -9.578668561091892 1.7168010157566727 2.3509886e-038
2.769724264705159 -6.020252371927032 -0.5547016486316023 2.3509886e-038
4.760815664620184 -9.59023461703348 2.105656126087216 2.3509886e-038
0.8334842397115629 -1.9574601175817015 -0.7198396178867259 2.3509886e-038
3.1577401813002455 -6.828303753802696 -0.36602807264293624 2.3509886e-038
0.9780465521921249 -2.2735230308320538 -0.7426805417897693 2.3509886e-038
1.2893367042755146 -2.763751608813636 -0.042295421504125685 2.3509886e-038
1.1521515713690096 -2.650412587940215 -0.7589490970353805 2.3509886e-038
2.974242495593363 -6.317350219965671 0.1456874993261239 2.3509886e-038
1.4153282803503076 -3.2243959680364496 -0.7951207163495533 2.3509886e-038
4.499972143803084 -9.475512261599745 0.583927758812459 2.3509886e-038
1.8110861216423477 -4.087098754498909 -0.8474021307266608 2.3509886e-038
4.597792392774315 -9.597978998015028 0.9642263796610058 2.3509886e-038
2.5206650201624354 -5.633185079017083 -0.9492171677155359 2.3509886e-038
4.637917127757232 -9.593855455817291 1.3398844222438777 2.3509886e-038
2.721099828963247 -6.025908675335711 -0.7829494066386238 2.3509886e-038
4.68215206598863 -9.601287689794551 1.721959788318931 2.3509886e-038
2.7453033590310367 -6.025094529455309 -0.551628523940678 2.3509886e-038
4.7191003134544225 -9.592444053948354 2.1066450830503785 2.3509886e-038
0.8303408478343506 -1.969375364285192 -0.7222400368719977 2.3509886e-038
3.101600850816902 -6.768527385960922 -0.3594861992949152 2.3509886e-038
0.9701256924073136 -2.2772174277706343 -0.7417507120983562 2.3509886e-038
1.2755578664011493 -2.759142904015727 -0.041035462394225786 2.3509886e-038
1.1444534061709222 -2.6582687006658268 -0.7588803191527369 2.3509886e-038
2.9472843404729945 -6.3166761768535835 0.14800202081971991 2.3509886e-038
1.4025525979004396 -3.226043259923177 -0.7929239498466618 2.3509886e-038
4.462903939405164 -9.481755514851345 0.5872210444849439 2.3509886e-038
1.8024056017771948 -4.106307088618016 -0.8483361297166852 2.3509886e-038
4.56457211372722 -9.61343029280577 0.9681267716663089 2.3509886e-038
2.5066947480135293 -5.654942798856891 -0.9490416380701574 2.3509886e-038
4.601300930675054 -9.602124948003688 1.3427798658151056 2.3509886e-038
2.7001747038392794 -6.035631888168223 -0.780492443480576 2.3509886e-038
4.64896066605898 -9.61670378912 1.7258571247483 2.3509886e-038
2.7276680560359843 -6.042071006027076 -0.5498337812730845 2.3509886e-038
4.687689472633057 -9.611345207785332 2.1113102839886766 2.3509886e-038
0.8242064021865284 -1.974299355153423 -0.7220733465158315 2.3509886e-038
3.0896809819945528 -6.8048503081134895 -0.3580681291043415 2.3509886e-038
0.9614472944653125 -2.279118243590467 -0.7402454699229453 2.3509886e-038
1.2659923357221805 -2.763561256840947 -0.03991190049141424 2.3509886e-038
1.134440459177658 -2.6607637028961793 -0.7572868219457509 2.3509886e-038
2.9237171723633244 -6.323153271670827 0.15048679053727387 2.3509886e-038
1.387468788660752 -3.222263112613359 -0.7894100619639293 2.3509886e-038
4.43007117388494 -9.49690051395486 0.5910778796124343 2.3509886e-038
4.532994744982091 -9.632367866218246 0.972399339302823 2.3509886e-038
2.5013480871127314 -5.696582533355018 -0.9521789880545328 2.3509886e-038
4.5697938394413375 -9.62100744307018 1.3471831739523905 2.3509886e-038
2.6727718800850444 -6.030756729312127 -0.7761597921165253 2.3509886e-038
4.6123037953064365 -9.624881829477644 1.7284836716614889 2.3509886e-038
2.7083241094586255 -6.055356570577612 -0.5476989955051063 2.3509886e-038
4.657046042253986 -9.631910578036539 2.116375929097469 2.3509886e-038
0.8187718899959777 -1.9809568125808659 -0.7225422693079921 2.3509886e-038
3.155411131143445 -7.0142488469164075 -0.3656461923860821 2.3509886e-038
0.9535094236646593 -2.282752860787173 -0.7393126006220359 2.3509886e-038
1.2514508808493559 -2.7570206556285486 -0.0386326945828705 2.3509886e-038
1.1146397704349735 -2.6400470115295556 -0.749116560492791 2.3509886e-038
2.905970530484234 -6.342265631598087 0.15328160365665633 2.3509886e-038
1.3747290060972386 -3.2237987586948194 -0.7872160484148336 2.3509886e-038
4.3879654985585645 -9.4919957709916 0.5936965394795892 2.3509886e-038
1.3797268005886802 -3.2041977750007202 -0.6572459407338231 2.3509886e-038
4.497981630868186 -9.643976731003944 0.9759517162723554 2.3509886e-038
1.3965156309096496 -3.210884297591162 -0.5345372813590155 2.3509886e-038
4.538205141878867 -9.639786727162486 1.351598477529186 2.3509886e-038
2.6574147053525508 -6.053044982970554 -0.7753283608381965 2.3509886e-038
4.57311135353162 -9.627566219334541 1.73015063515545 2.3509886e-038
2.6840743667209948 -6.057647660641198 -0.544572723168402 2.3509886e-038
4.622922677003073 -9.645301640996994 2.119898876343191 2.3509886e-038
0.8089960144922683 -1.977074923915237 -0.7191779604504407 2.3509886e-038
3.1392096572200154 -7.043540902042745 -0.363727209320461 2.3509886e-038
0.9477541862930248 -2.2916736372744793 -0.7400933032086474 2.3509886e-038
1.2456536573125858 -2.7684337475719194 -0.03766427289722987 2.3509886e-038
1.1106742374906702 -2.656712100347009 -0.7515715046432245 2.3509886e-038
2.873250622543663 -6.328556263397381 0.1552848604402146 2.3509886e-038
1.3673077452152795 -3.237869328122905 -0.7880848903158459 2.3509886e-038
4.363414011630215 -9.525031217784635 0.5987027532845961 2.3509886e-038
1.3693570352147821 -3.2110481689509793 -0.6563053091426732 2.3509886e-038
4.460422230943735 -9.645672262092345 0.9783971596159815 2.3509886e-038
1.3884857303163307 -3.223196116284197 -0.5344292892091169 2.3509886e-038
4.504861548144497 -9.654864201178016 1.3555199873392545 2.3509886e-038
4.540671292947016 -9.644387818447564 1.7343861593941012 2.3509886e-038
4.590425644020799 -9.657819323704471 2.1232326767545278 2.3509886e-038
0.8049520656744751 -1.987203021753854 -0.720916887519937 2.3509886e-038
3.112771225174209 -7.046669786509316 -0.3606226046828447 2.3509886e-038
0.943076465051697 -2.3021777519563638 -0.7414861012485354 2.3509886e-038
1.2393133555343283 -2.780053340993014 -0.03663140868689685 2.3509886e-038
2.851321268799671 -6.338402748342986 0.1578650241941182 2.3509886e-038
1.354345662397768 -3.2372721722956697 -0.7855149627608327 2.3509886e-038
4.329605945280435 -9.53363590908408 0.6020448262940765 2.3509886e-038
1.359516350481969 -3.217615530932749 -0.6554261979191105 2.3509886e-038
4.427038511493679 -9.660641378712809 0.9823253364989712 2.3509886e-038
1.3664226754630677 -3.2027537804718325 -0.5289065580558093 2.3509886e-038
4.47064669731441 -9.663673280501493 1.358492684925317 2.3509886e-038
1.3868141413727528 -3.218188363244203 -0.40840334604661865 2.3509886e-038
4.51234039294331 -9.665720068410256 1.739400859026686 2.3509886e-038
1.3962661182069254 -3.2098728011571027 -0.28513643095077795 2.3509886e-038
4.5520494374018075 -9.66209566888337 2.1248171792808748 2.3509886e-038
0.7997833665545759 -1.9936553467545717 -0.7214157644711039 2.3509886e-038
1.4136135932044924 -3.2304462157234197 -0.16375001530467054 2.3509886e-038
0.9343372600722459 -2.3039732563436157 -0.739971662589098 2.3509886e-038
1.3726788505284782 -3.1081485783424956 -0.03962485751641287 2.3509886e-038
1.0933602477056108 -2.6665750543152806 -0.7499511229205147 2.3509886e-038
1.3662401982495929 -3.298183405148678 -0.7977097187886031 2.3509886e-038
4.295770793257711 -9.546492792965354 0.6058160681379632 2.3509886e-038
1.3483277772555637 -3.2225876005474223 -0.6541089766807322 2.3509886e-038
4.396077255483394 -9.680928510957658 0.9868157525286132 2.3509886e-038
1.361238848158989 -3.2201989745237984 -0.5297591976193355 2.3509886e-038
4.434740931194238 -9.673103708334917 1.3616664554709432 2.3509886e-038
1.3803159511524354 -3.2341118441459944 -0.40847201698211766 2.3509886e-038
4.482247821617886 -9.687704178925893 1.7446247357144902 2.3509886e-038
1.3890681219417633 -3.223966233775764 -0.2846326740309987 2.3509886e-038
4.520334425186059 -9.68043955075619 2.129528852565941 2.3509886e-038
0.7956332316045115 -2.0037741796376882 -0.7231414411984978 2.3509886e-038
1.4039976098942404 -3.239059493505414 -0.16261440759075582 2.3509886e-038
0.9227413714419508 -2.2986185808029345 -0.7361774950903008 2.3509886e-038
1.3458708449069712 -3.076257308182144 -0.0379041164800136 2.3509886e-038
1.0877170205648623 -2.679637279987775 -0.7513723684591651 2.3509886e-038
1.351803584377792 -3.2960147616094835 -0.7946165877217024 2.3509886e-038
4.256207438306022 -9.546464690047259 0.6087797810193358 2.3509886e-038
1.7524822485905969 -4.230102963454658 -0.8555689421530133 2.3509886e-038
4.365024086481494 -9.701120387714306 0.9913192052730744 2.3509886e-038
1.3447028483853622 -3.2123537344184 -0.5263486992775843 2.3509886e-038
4.400462369714759 -9.686012211884462 1.3653533717285296 2.3509886e-038
1.3628970489140202 -3.224408798054114 -0.4053087411356676 2.3509886e-038
4.442178548240042 -9.688065218456797 1.7459830373711123 2.3509886e-038
1.384137010232415 -3.2435493120304417 -0.2846013714159978 2.3509886e-038
4.4926634200371085 -9.707578014648181 2.136210155352112 2.3509886e-038
0.7900369859854239 -2.0103594347195566 -0.7235891047292089 2.3509886e-038
1.3888200927266392 -3.234793364898945 -0.16083391384718948 2.3509886e-038
0.92039941388196 -2.3163727291738017 -0.7397866074320341 2.3509886e-038
1.326459198765412 -3.0607313716564004 -0.0364073264440361 2.3509886e-038
1.093547625551528 -2.7214347990759733 -0.7608191621390101 2.3509886e-038
1.3160997337290026 -3.2413300460634256 -0.7789211561485521 2.3509886e-038
4.229606854475043 -9.575495359937513 0.6136116504446747 2.3509886e-038
1.7437428051501416 -4.2510689611469 -0.8567683620637288 2.3509886e-038
4.329021192408911 -9.710294032160192 0.9947168796452863 2.3509886e-038
1.8560531075962428 -4.47779817254443 -0.7307531769873634 2.3509886e-038
4.369407579498045 -9.706030595291676 1.370067308008724 2.3509886e-038
4.407061111483391 -9.69904356782379 1.749281786127196 2.3509886e-038
1.3689996151276511 -3.2392640978604046 -0.28247379816503754 2.3509886e-038
4.456674430322392 -9.71681035713795 2.1389859679460956 2.3509886e-038
0.7816558567461267 -2.009860161494211 -0.7214939657758579 2.3509886e-038
1.3830729774287693 -3.2525233053154814 -0.16014474908263243 2.3509886e-038
0.9109269786357143 -2.3162966405378733 -0.7376985831125391 2.3509886e-038
1.3142700493935833 -3.061647687538853 -0.035113983369524926 2.3509886e-038
1.0855047786404466 -2.7291323470422495 -0.760705004913454 2.3509886e-038
1.3048242303660924 -3.246204411039322 -0.7775916013513804 2.3509886e-038
4.223661264984133 -9.652011868908714 0.6215262919834237 2.3509886e-038
1.7282237337678514 -4.255630222792798 -0.854659720266834 2.3509886e-038
4.292201785647595 -9.71751277113927 0.9979309912263159 2.3509886e-038
1.8329854224785123 -4.4662169321039045 -0.7259444701715689 2.3509886e-038
4.339068510261489 -9.72776097443026 1.375050667116514 2.3509886e-038
1.8570487271035694 -4.4804151566847485 -0.5578366431163593 2.3509886e-038
4.3735389436273415 -9.713492474382706 1.753235220214842 2.3509886e-038
1.8757663751476001 -4.481798032231468 -0.38841106842362005 2.3509886e-038
4.421484161139663 -9.727694834832022 2.1421587506701982 2.3509886e-038
0.7732888440678087 -2.009325527159646 -0.7194000408462735 2.3509886e-038
1.3702393030649989 -3.253680585733937 -0.1586342085788301 2.3509886e-038
0.9112054955736293 -2.3412020442899664 -0.7435579557296581 2.3509886e-038
1.3099184926778908 -3.080918852922668 -0.03402471994538275 2.3509886e-038
1.0752974211019652 -2.7314009721313983 -0.7590837436717615 2.3509886e-038
1.3086889000337367 -3.289137755799067 -0.7853559118345013 2.3509886e-038
4.209303637110022 -9.710272217610497 0.6283132349583751 2.3509886e-038
1.703157874314474 -4.23641618489029 -0.8478021475142739 2.3509886e-038
4.258571162010731 -9.73189008270818 1.0018990383187791 2.3509886e-038
4.30222472062946 -9.734877473702106 1.3779922166071703 2.3509886e-038
1.8452624814936285 -4.496250624358119 -0.5571397129616906 2.3509886e-038
4.344786951145702 -9.738639367000951 1.7591504890254566 2.3509886e-038
1.8632682201911233 -4.49580141426945 -0.3872104972631635 2.3509886e-038
4.386273288558792 -9.738448392846252 2.1453358756664915 2.3509886e-038
0.7676358056843373 -2.015847953387953 -0.7198396621231529 2.3509886e-038
1.8765389087809525 -4.4995356262912205 -0.21721388902899474 2.3509886e-038
0.8996049199155229 -2.335715295822302 -0.7397612307178785 2.3509886e-038
1.298461137257547 -3.0836086264188833 -0.03274435929302416 2.3509886e-038
1.070007322901078 -2.7462627118517275 -0.7609612720600019 2.3509886e-038
4.098240216643358 -9.635399416045813 0.26113655237736455 2.3509886e-038
1.277928278603585 -3.2449331911686006 -0.7723296247587466 2.3509886e-038
4.177254329907885 -9.72819130934475 0.6325211483467581 2.3509886e-038
1.6877008655746153 -4.240828420005388 -0.845698942214951 2.3509886e-038
4.228063336695229 -9.753454109718623 1.006628807427933 2.3509886e-038
2.379190131331058 -5.914464090760658 -0.9536681749364924 2.3509886e-038
4.266963573093536 -9.745491969428343 1.381452156308435 2.3509886e-038
4.309532926527386 -9.749258673486874 1.7624717814964406 2.3509886e-038
1.8446358464357102 -4.495016281809 -0.38473661550278965 2.3509886e-038
4.352631678202632 -9.752656281814444 2.14930790023511 2.3509886e-038
0.7632857276143772 -2.0259072044491773 -0.7215393939218324 2.3509886e-038
1.8647485184525465 -4.515334171871455 -0.2158125093478878 2.3509886e-038
0.8901030238636541 -2.335551306159961 -0.7376681828703859 2.3509886e-038
1.2839222232128267 -3.078872532518578 -0.0313877543680523 2.3509886e-038
1.0632343656298673 -2.757508505819168 -0.7618291713908185 2.3509886e-038
4.092806882925273 -9.71575097197937 0.26690052517026897 2.3509886e-038
1.2872062437194682 -3.3024394552063274 -0.7835152384596415 2.3509886e-038
4.14513032050594 -9.746002185115163 0.6367399137480927 2.3509886e-038
1.5951141602249426 -4.049390319185067 -0.8046870325774542 2.3509886e-038
4.197451804846045 -9.774924325135434 1.0113729400189082 2.3509886e-038
2.3659564599806364 -5.941458276530637 -0.9541920531446824 2.3509886e-038
4.230888891235956 -9.754157086649123 1.3846587535940724 2.3509886e-038
1.9764298852266968 -4.913147439116983 -0.6030020954374022 2.3509886e-038
4.280583134960291 -9.774211162877652 1.7684144437499354 2.3509886e-038
2.9293072643031164 -7.209490112993632 -0.6132268839406173 2.3509886e-038
4.320536610857918 -9.770329085669642 2.1540774915786827 2.3509886e-038
0.7588770492311548 -2.0359621835344743 -0.7232318801240576 2.3509886e-038
1.8483294988932824 -4.520009273211658 -0.21387433537471995 2.3509886e-038
0.884677708048698 -2.3461173597313203 -0.7389687452302418 2.3509886e-038
1.2709597950243579 -3.0777680412343917 -0.03007246724661511 2.3509886e-038
1.053636801005881 -2.7615023998727675 -0.7606950829653853 2.3509886e-038
4.083777907104647 -9.788800172792406 0.27252219268659905 2.3509886e-038
1.3038323792525133 -3.3801021307216637 -0.7993953031364669 2.3509886e-038
4.1137118368944 -9.765542767423144 0.6410898515770109 2.3509886e-038
1.572461996127158 -4.0332485962397975 -0.7986688994259938 2.3509886e-038
4.158948006378312 -9.777974402738337 1.0142304308544654 2.3509886e-038
1.6097265217150285 -4.083858808680054 -0.6532441464362919 2.3509886e-038
4.1971573185248685 -9.768153072713135 1.3886452479225402 2.3509886e-038
1.998334289607397 -5.018073759177386 -0.6129376139321441 2.3509886e-038
4.238944647541858 -9.77011487586022 1.7691300090454511 2.3509886e-038
4.2899318799026815 -9.791487115106879 2.1596508581385763 2.3509886e-038
0.7491549340488215 -2.0317672706750787 -0.7198693280795352 2.3509886e-038
2.5225221044589796 -6.230385354961349 -0.29183253143331495 2.3509886e-038
0.8818711985139069 -2.3638673939794836 -0.7425199240420302 2.3509886e-038
1.257796325983087 -3.074541342611598 -0.028804944499396024 2.3509886e-038
1.0399194163438805 -2.754590173702307 -0.756572223921071 2.3509886e-038
4.0429965829540295 -9.786136301343753 0.27606231972648265 2.3509886e-038
1.2983456651672587 -3.4013642935596398 -0.8018770936111037 2.3509886e-038
4.079896687959103 -9.779455945493014 0.6450880322760235 2.3509886e-038
1.4168291875790688 -3.671998332273807 -0.7245884617446778 2.3509886e-038
4.122172228519711 -9.780179036147894 1.0168857973072747 2.3509886e-038
1.5653404058903808 -4.0122821078511475 -0.639234173891756 2.3509886e-038
4.168809556361559 -9.794805828907457 1.3944583786026588 2.3509886e-038
4.205183113585848 -9.78397077442906 1.7731223928311852 2.3509886e-038
1.352050499288577 -3.3934584543740636 -0.28512891636351073 2.3509886e-038
4.254677016024248 -9.797473160859479 2.1618637789587245 2.3509886e-038
0.7420760081590557 -2.034659700005494 -0.719032030771785 2.3509886e-038
1.3744609282959748 -3.427243402578374 -0.1589832202160586 2.3509886e-038
0.8760438774826372 -2.3724606926188327 -0.7432866043838962 2.3509886e-038
1.2463870016040564 -3.0770380588254604 -0.027527609414296605 2.3509886e-038
1.0350786720024252 -2.771204310174775 -0.7589172965603979 2.3509886e-038
4.003791038647234 -9.78700671163728 0.2797030295002303 2.3509886e-038
1.2967721677458097 -3.431527705887566 -0.8065600854803285 2.3509886e-038
4.050782501769554 -9.79994023972196 0.649381963238054 2.3509886e-038
1.3752174295699235 -3.599760290501778 -0.7079750832869713 2.3509886e-038
4.091394251862082 -9.801307819229198 1.0216556814896114 2.3509886e-038
2.332443230198547 -6.040775157731083 -0.9585737681131152 2.3509886e-038
4.135091453395672 -9.804241826570278 1.3977442451150974 2.3509886e-038
1.5697314367702626 -4.021132562575915 -0.48659504190254665 2.3509886e-038
4.173829662459627 -9.798843000575191 1.7772525731721673 2.3509886e-038
1.3490519531543192 -3.4205030091798294 -0.2855939679454849 2.3509886e-038
4.217738792923182 -9.804013857479173 2.164277618211927 2.3509886e-038
0.7379178305291594 -2.044527646555443 -0.7207528423561906 2.3509886e-038
1.3566744367449401 -3.4171945535426946 -0.15689421618661095 2.3509886e-038
0.8638303215480546 -2.3649854919937496 -0.7389294139795743 2.3509886e-038
1.027930889315939 -2.7803580470149387 -0.7593216454977811 2.3509886e-038
3.9738368694720645 -9.805571523117717 0.2836756872298025 2.3509886e-038
1.2732043040448082 -3.4052399769325437 -0.7978589034012793 2.3509886e-038
4.015342061656115 -9.809936551798975 0.6531517716778572 2.3509886e-038
1.6360794826320784 -4.32797582592878 -0.8482254855817308 2.3509886e-038
4.055194233508336 -9.809459488011981 1.0250937689750304 2.3509886e-038
2.3132102488084025 -6.050657916995646 -0.956505767119445 2.3509886e-038
4.095073269345307 -9.803262809903675 1.39966756054678 2.3509886e-038
4.143794523276523 -9.82156165223845 1.7829116510770913 2.3509886e-038
4.186950448330114 -9.824840438822878 2.169879201956384 2.3509886e-038
0.7307927438322263 -2.047382177354099 -0.7199092111262855 2.3509886e-038
0.8588564271203457 -2.377306531639534 -0.7407667210084279 2.3509886e-038
1.3490195175533897 -3.3978999548639885 -0.02753065050939124 2.3509886e-038
1.0235774430732172 -2.7987871900884476 -0.7621400133431693 2.3509886e-038
3.9406090338724806 -9.82100915190277 0.2877528825687501 2.3509886e-038
1.262715763197813 -3.4136371438180833 -0.79731226723218 2.3509886e-038
3.97837459558012 -9.816101454805631 0.6566792904271392 2.3509886e-038
1.6217221164045688 -4.335825164162138 -0.8468035226754953 2.3509886e-038
4.028040066410082 -9.83958167974198 1.0308505228518534 2.3509886e-038
2.301991454014142 -6.084954372519106 -0.9580958123036798 2.3509886e-038
4.063442172432932 -9.822279358780216 1.4044689554637446 2.3509886e-038
2.830867323076802 -7.4037396746748785 -0.8873598227009962 2.3509886e-038
4.108330280262242 -9.831443548317916 1.7862704858250371 2.3509886e-038
1.0342185817075582 -2.676673247141658 -0.22067336502392304 2.3509886e-038
4.153011804142643 -9.838346117994439 2.173899041542974 2.3509886e-038
0.7274508767044331 -2.0609544505216952 -0.7228320895420963 2.3509886e-038
1.921917058977729 -4.940700021626416 -0.22216690124751864 2.3509886e-038
0.8486393314949571 -2.3751637654813016 -0.7381006230936165 2.3509886e-038
1.3174908466868387 -3.3523067989246083 -0.025749298844938928 2.3509886e-038
1.0131779086829085 -2.8008213408985916 -0.7604912617841504 2.3509886e-038
3.9036355804599614 -9.827039242993186 0.29156316023243134 2.3509886e-038
1.258228414876258 -3.438517004293853 -0.8006049571525125 2.3509886e-038
3.9443859310966243 -9.829538364728476 0.6607064200801087 2.3509886e-038
1.6059676915500434 -4.339935111878653 -0.8446585528322545 2.3509886e-038
3.9910035636862182 -9.845648343731556 1.034109538781328 2.3509886e-038
4.031727540520286 -9.841194238148745 1.409282322053191 2.3509886e-038
4.068319468514704 -9.830261746168423 1.7876452621036742 2.3509886e-038
1.0156699658044168 -2.6561203362462606 -0.21758892475320035 2.3509886e-038
4.122055157456478 -9.858962762315508 2.1795245834260335 2.3509886e-038
0.7177657573067262 -2.05660143799093 -0.719471771726409 2.3509886e-038
1.8882668484652414 -4.904531142606982 -0.2182271903480977 2.3509886e-038
0.8461245523900894 -2.3946974288358724 -0.7421690946059811 2.3509886e-038
1.0056866412844196 -2.585211369234433 -0.018769393566534648 2.3509886e-038
1.0027765089900735 -2.802816850783822 -0.7588416227795456 2.3509886e-038
1.248264211653092 -3.4487110059164405 -0.8004666269634204 2.3509886e-038
3.913304103411323 -9.85027518157589 0.6652416958210223 2.3509886e-038
1.5915564460056284 -4.347683569910737 -0.8432283246760579 2.3509886e-038
3.9539720363101765 -9.851575659902158 1.0373700806562196 2.3509886e-038
4.000677722615272 -9.861836904498613 1.4143707293158112 2.3509886e-038
4.037334276025415 -9.850822220480111 1.7930022561460683 2.3509886e-038
1.0015126744525686 -2.646659128783094 -0.21543337945337193 2.3509886e-038
4.086500645521214 -9.868620941253333 2.1827616236549243 2.3509886e-038
0.7118390552321661 -2.0629758702019356 -0.7198750232915887 2.3509886e-038
1.8563166223592422 -4.871920987884761 -0.21448369639668696 2.3509886e-038
0.8403176953630693 -2.4051836082209865 -0.7434208976701246 2.3509886e-038
1.0003195604564894 -2.598018982563261 -0.017770557001168363 2.3509886e-038
1.0014271506701848 -2.8303539250217082 -0.7640974997771035 2.3509886e-038
1.0036559022433829 -2.578439695766939 0.07840880889337387 2.3509886e-038
1.235609354574395 -3.45151914705116 -0.79861810693918 2.3509886e-038
3.8806631838483203 -9.867194887034655 0.6695384562257798 2.3509886e-038
1.589173651976841 -4.388686765534972 -0.848230260774153 2.3509886e-038
3.919146187743763 -9.86291387966887 1.0412184366506834 2.3509886e-038
2.2589088725120967 -6.16552425952693 -0.9592399639111293 2.3509886e-038
3.9650985479921794 -9.871343590482816 1.417887344800791 2.3509886e-038
4.004774488953794 -9.867626351028866 1.797706390073456 2.3509886e-038
0.9930283730956349 -2.6520723775024857 -0.2144950081591463 2.3509886e-038
4.047956035499711 -9.870894703538244 2.1843979411219703 2.3509886e-038
0.7046513086879687 -2.0657392701809707 -0.7190221831282539 2.3509886e-038
1.8224981101819047 -4.833537385479136 -0.21052410398591437 2.3509886e-038
0.833822386960425 -2.4138451762105833 -0.7441054167135115 2.3509886e-038
0.9863298840638098 -2.5883929007034827 -0.016618062818305523 2.3509886e-038
0.9915775793323347 -2.834134490027447 -0.7629287334379715 2.3509886e-038
0.9896920426562844 -2.568808138178532 0.07906688461074035 2.3509886e-038
1.2222991360497 -3.452437899849019 -0.7963435338543405 2.3509886e-038
3.84505575288058 -9.876567195355346 0.6733386757183997 2.3509886e-038
1.5792252614162243 -4.409351515664111 -0.849274380891937 2.3509886e-038
3.887931281701839 -9.883389138045132 1.0460530535394663 2.3509886e-038
2.2496261430080233 -6.2072173636038945 -0.9618878116758804 2.3509886e-038
3.926569079476016 -9.873352201482577 1.420348369642218 2.3509886e-038
1.7756880066553957 -4.845541219127628 -0.5696751882176851 2.3509886e-038
3.9765514610506094 -9.89530030989993 1.8044237041598636 2.3509886e-038
0.9810546255030478 -2.648107225896903 -0.212801641448773 2.3509886e-038
4.015333963676474 -9.887543355450653 2.1892487124991966 2.3509886e-038
0.7029160452065134 -2.0846796181258735 -0.7237929843327435 2.3509886e-038
1.804338927209613 -4.836165788314317 -0.20837280329303579 2.3509886e-038
0.8210730610855841 -2.404317863115148 -0.7391965190416221 2.3509886e-038
0.9778064103302302 -2.591631066395846 -0.015606139053745194 2.3509886e-038
0.9880514258058298 -2.856201571906942 -0.7666754037722447 2.3509886e-038
0.9836430030678052 -2.579657784042542 0.0803560547971961 2.3509886e-038
1.216104584330434 -3.4735959022513936 -0.7987356037308646 2.3509886e-038
3.8079884159042736 -9.882084581606344 0.6768886063148418 2.3509886e-038
1.5640086758348777 -4.41301664764493 -0.8471896213928882 2.3509886e-038
3.8576139325433982 -9.90126056036093 1.050500454877219 2.3509886e-038
2.235410079440359 -6.235879569256382 -0.9624907077855824 2.3509886e-038
3.8938762241560196 -9.889968838651962 1.4249345217033844 2.3509886e-038
3.941144180895974 -9.900263257398342 1.8069443346458387 2.3509886e-038
0.9702646668595876 -2.645790896395049 -0.2113163145841866 2.3509886e-038
3.9858185587953354 -9.907072666839614 2.1947116994612914 2.3509886e-038
0.6966163584858254 -2.0890802878239056 -0.7235976512491034 2.3509886e-038
1.7821756937050375 -4.825289630358818 -0.2057610202992204 2.3509886e-038
0.8192662776035211 -2.4255047725545613 -0.7438320104158318 2.3509886e-038
0.9650745605144669 -2.5835989771947885 -0.01452937774835561 2.3509886e-038
0.9779804841880179 -2.857917069819579 -0.7650626789321411 2.3509886e-038
0.9751544477864115 -2.582846842700283 0.08136438486969921 2.3509886e-038
1.209106750690437 -3.4908343136889735 -0.8003365520459758 2.3509886e-038
3.778331334967142 -9.901742824816761 0.6812630067887671 2.3509886e-038
1.5559483905808964 -4.4370590528363945 -0.8490122288308524 2.3509886e-038
3.8243497386941234 -9.91161229289504 1.054169582862809 2.3509886e-038
2.21946397766495 -6.2566520905744785 -0.9620538745590277 2.3509886e-038
3.8657052009047237 -9.913223125376806 1.430393263322201 2.3509886e-038
1.7227200021329176 -4.8017614390431085 -0.5592379260205216 2.3509886e-038
3.9043028695603943 -9.901428918206962 1.8087949849160925 2.3509886e-038
0.9588216117946641 -2.6415558832108776 -0.20968489812206276 2.3509886e-038
3.9518595088335773 -9.915595616961575 2.1977674704818746 2.3509886e-038
0.6849414796467019 -2.0772194951579976 -0.7177870637720618 2.3509886e-038
